# .PCD v0.7 - Point Cloud Data file format
VERSION 0.7
FIELDS x y z
SIZE 4 4 4
TYPE F F F
COUNT 1 1 1
WIDTH 1539
HEIGHT 1
VIEWPOINT 0 0 0 1 0 0 0
POINTS 1539
DATA ascii
28.778543 -9.4126701 -1.536
28.761589 -9.4571152 -1.535925
28.771076 -9.5103998 -1.5374531
28.975355 -10.961513 -1.828918
28.770605 -9.6610556 -1.540354
28.770271 -9.7112827 -1.54131
28.781179 -9.7654228 -1.542953
28.771839 -9.913847 -1.545397
28.776718 -9.9661751 -1.546698
28.659933 -10.127607 -1.543687
28.671934 -10.182622 -1.545446
28.74444 -10.310664 -1.551977
28.747046 -10.41373 -1.5542361
28.743673 -10.514955 -1.556186
28.736237 -10.563453 -1.556801
28.737942 -10.666775 -1.559063
28.806505 -10.795798 -1.565483
28.871374 -10.872174 -1.570567
28.515663 3.7265019 -0.29677701
28.547117 3.6850331 -0.297227
28.564188 3.596169 -0.29736701
28.41814 3.4880991 -0.294599
28.510084 3.4082861 -0.296067
28.61459 3.3748829 -0.29781201
28.684357 3.291775 -0.29885301
28.700197 3.2023971 -0.29899499
28.633438 3.149873 -0.29773301
28.66276 3.0621691 -0.29807699
28.6938 2.97439 -0.298498
28.698275 2.9294291 -0.29849601
28.245003 1.949075 -0.28937
27.793575 1.832601 -0.28136101
27.792257 1.788818 -0.28129101
27.791414 1.701274 -0.281225
27.79229 1.613974 -0.28115401
28.681526 2.8335471 -0.125825
27.792891 1.5265681 -0.281124
28.672029 2.741878 -0.12565599
27.79908 1.483218 -0.281194
28.664183 2.6958599 -0.125515
27.787279 1.395383 -0.28091401
28.674164 2.6062009 -0.125535
27.805172 1.308785 -0.28119901
28.66593 2.5148649 -0.12538899
27.79903 1.264897 -0.281059
28.65971 2.4691181 -0.125273
27.818157 1.134617 -0.28134501
28.670515 2.334264 -0.12531
28.671982 2.289186 -0.125286
28.6654 2.2435069 -0.12517001
28.659182 2.1075001 -0.12502401
28.658295 2.0623181 -0.124978
28.683275 2.0188949 -0.12523
29.035255 1.905483 -0.129233
28.918272 1.852657 -0.12785
27.868912 1.744629 -0.115709
27.850929 1.524606 -0.115403
27.839216 1.043002 -0.115162
27.868505 0.86908299 -0.115483
28.453217 2.321512 -0.62939698
28.481932 2.2338359 -0.630081
28.505159 2.1906409 -0.630665
28.445715 2.0967901 -0.62873697
28.665827 3.0686331 -0.465294
28.51762 2.011842 -0.63070703
28.635166 2.974669 -0.464403
28.608343 1.972771 -0.63327801
28.63166 2.9290111 -0.46421599
28.640711 1.839584 -0.634022
28.700325 2.7995429 -0.46555701
28.645374 1.794822 -0.63408101
28.628847 2.7475541 -0.46378899
28.606054 1.747589 -0.632855
28.585152 2.698338 -0.462672
28.563126 2.5609059 -0.46192101
28.616734 2.520376 -0.46308401
28.648367 2.4778581 -0.463734
28.685076 2.345093 -0.46438
28.67458 2.299072 -0.464055
28.671986 2.253691 -0.46391499
28.673744 2.1182189 -0.46377099
28.710756 2.0756309 -0.46456301
28.61301 1.9787019 -0.46218699
28.475027 1.880017 -0.45884001
28.525652 1.838329 -0.459957
28.592787 1.752406 -0.46144301
28.613741 1.663677 -0.461817
28.548555 1.570277 -0.460233
28.650642 1.530549 -0.46256101
28.670904 1.4415129 -0.46293601
28.674908 1.351547 -0.46298099
28.648834 1.305436 -0.46233201
28.630114 1.169746 -0.46182099
28.659697 1.125892 -0.462475
28.663235 1.081055 -0.462524
28.629457 0.94507498 -0.461689
28.608727 0.89959902 -0.46117899
28.458004 0.850748 -0.45764601
28.419134 0.715949 -0.456718
28.400038 0.671018 -0.456256
28.518808 0.62871897 -0.459005
28.428904 0.49327001 -0.456916
28.513416 0.449765 -0.45887399
28.400007 -7.191124 -2.24193
28.133816 -7.2169552 -2.221107
28.149223 -7.2680869 -2.2234621
28.029293 -7.3777981 -2.216285
28.439463 -7.7808309 -1.201426
28.688673 -8.095397 -2.1065681
28.689735 -8.2420292 -2.1099441
28.670938 -8.3831568 -2.111778
28.605942 -8.4126062 -2.1076479
28.62859 -7.268343 -1.907269
28.61347 -8.4637413 -2.10938
28.639668 -7.2405739 -0.84982997
27.352499 -8.4592113 -2.0164001
28.643518 -7.289433 -0.85043299
27.171679 -8.449029 -2.0028591
28.707253 -7.3539128 -0.85324597
26.996658 -8.4401159 -1.989781
28.68321 -7.4919462 -0.853809
28.611317 -7.5209079 -0.85163301
28.631241 -7.8639441 -0.85586202
27.906775 -8.4527092 -1.881979
27.71006 -8.4876013 -1.86941
27.517454 -8.4751434 -1.856061
28.389071 -8.3752232 -0.853136
28.188072 -8.4116096 -0.84675002
27.969982 -8.3935423 -0.83915198
28.636497 -7.3989801 -0.67445999
28.728592 -7.9141002 -1.747992
27.612467 -8.4270191 -0.82745498
28.699896 -8.0519199 -1.748791
27.413834 -8.4126968 -0.82056898
28.679312 -8.0946636 -1.748304
27.25156 -8.4091043 -0.81503898
28.641413 -8.1323643 -1.746644
27.123331 -8.5093412 -0.811894
28.705118 -7.803546 -0.67992002
28.690672 -7.847971 -0.679896
28.672306 -7.8912892 -0.67975301
28.658379 -7.224175 -1.4919291
28.674482 -8.0376291 -0.68114197
28.642654 -7.3639479 -1.493211
28.667356 -8.0842028 -0.68135601
28.72352 -7.433166 -1.498736
28.665915 -8.1324425 -0.68174797
28.727022 -7.4822402 -1.499686
28.540298 -8.2417707 -0.67921501
28.702328 -7.6204038 -1.5005111
28.661257 -8.3262367 -0.683411
27.466085 -8.4493866 -1.679642
28.58852 -8.3534288 -0.68160498
27.288868 -8.4407644 -1.668453
28.184664 -8.3776073 -0.67045498
28.620886 -7.4833288 -0.498005
26.917425 -8.4629908 -1.645879
28.640446 -7.8451161 -1.5007221
27.987665 -8.3657761 -0.66478401
26.440397 -8.3557243 -1.614064
28.700928 -7.9104071 -1.505105
27.788858 -8.400526 -0.65953898
28.634802 -7.6314578 -0.49937999
28.692768 -8.0053082 -1.506242
27.420246 -8.3810301 -0.64896899
28.730358 -8.1133118 -1.51009
27.240858 -8.3719406 -0.64383203
28.736534 -8.1638412 -1.51127
27.044361 -8.4035988 -0.63864303
28.708368 -8.2534008 -1.511263
28.62644 -7.9674129 -0.50161201
28.67417 -8.341054 -1.510879
28.666176 -8.0758667 -0.50333399
28.589962 -8.4138517 -1.5075541
28.689732 -8.1312637 -0.504273
28.484676 -8.4310894 -1.502097
28.709656 -8.2345219 -0.50548702
28.127031 -8.4199867 -1.482371
28.671677 -8.3211718 -0.50531
27.931999 -8.4566383 -1.472406
28.618074 -8.354166 -0.50434899
27.742916 -8.4462128 -1.461912
28.589182 -8.492156 -0.50477898
27.355375 -8.4678125 -1.441221
28.433964 -8.4940557 -0.50129801
27.089592 -8.5061932 -0.47125801
26.910288 -8.4955931 -0.46715599
26.927128 -8.547534 -0.46795401
19.308744 16.271526 -1.1368639
19.299156 15.662158 -0.22949301
19.206749 15.537982 -0.226836
19.311451 15.423576 -0.226926
19.175587 15.266807 -0.223324
19.207672 15.145689 -0.222394
19.174604 15.071316 -0.221104
19.226566 15.063407 -0.221705
19.170338 14.87522 -0.21885
19.176142 14.83181 -0.218436
19.17296 14.638899 -0.216253
19.288363 14.678819 -0.218254
19.147089 14.477785 -0.21413501
19.189079 14.415413 -0.21400701
18.614964 14.901315 -0.91964602
19.16988 14.354352 -0.21306901
18.359446 14.603219 -0.901434
19.196983 14.281108 -0.21266
18.563492 14.67063 -0.910896
18.505587 14.391404 -0.90051597
19.070427 15.917658 -0.81812
19.10763 15.89799 -0.818748
18.154675 15.062472 -0.76652199
19.045712 15.646594 -0.81009698
19.048464 15.599126 -0.80891401
19.071289 15.568049 -0.808801
19.095823 15.439459 -0.80619198
18.412579 15.383044 -0.63995999
19.51672 16.199821 -0.68821502
19.250875 15.878225 -0.67374802
19.102591 15.706133 -0.665829
19.109795 15.612198 -0.66386497
19.12435 15.524537 -0.66228801
19.070835 15.431835 -0.65873599
18.866835 15.072943 -0.64512801
18.915424 15.063298 -0.64622402
19.657253 15.15637 -0.66857898
18.349409 15.328089 -0.494266
18.025633 14.916849 -0.47922501
18.407787 15.182465 -0.492771
18.067474 14.809274 -0.47811401
18.606537 15.151075 -0.496602
19.140799 15.533363 -0.51576197
18.619642 15.01724 -0.494378
19.168728 15.358399 -0.51309597
19.08647 15.195339 -0.50821102
19.053671 15.120924 -0.50607401
18.502632 14.593012 -0.48378599
18.688606 14.644155 -0.48896399
19.157051 14.960277 -0.50542599
19.064348 14.79292 -0.50021899
19.282255 15.997522 -0.37834999
19.078735 14.70878 -0.49902099
19.166912 15.801129 -0.37333101
19.042887 14.63406 -0.49682701
19.177677 15.759718 -0.372879
18.996422 14.45766 -0.49255899
19.162889 15.597596 -0.37016001
19.102051 14.490442 -0.49556899
19.163935 15.548734 -0.36942899
19.084698 14.430546 -0.49407601
19.161762 15.497397 -0.368604
19.103991 14.304928 -0.49226499
19.193605 15.374729 -0.367331
19.086157 14.245281 -0.49077299
19.155045 15.294871 -0.365435
19.068182 14.185726 -0.489281
18.806152 14.969098 -0.354314
19.068285 14.047592 -0.486828
19.292746 15.207934 -0.36660001
19.06274 13.997735 -0.48580399
19.168531 15.061836 -0.36218899
19.088036 14.950618 -0.359083
19.15159 14.855852 -0.358836
19.026686 14.664307 -0.353744
19.295729 14.727255 -0.359552
19.175327 14.588324 -0.35532999
19.140966 14.467979 -0.35297301
19.174883 14.399631 -0.35258499
19.170113 14.349291 -0.35176301
19.190756 14.271259 -0.351037
19.174068 14.166097 -0.349206
19.18918 14.084664 -0.34834099
19.178846 14.03107 -0.34738001
28.628345 3.6123431 0.73195302
28.633272 3.5217919 0.73180801
28.632647 3.476227 0.73170298
28.63431 3.339927 0.73141599
28.655258 3.2968149 0.731709
28.664213 3.2523451 0.731785
28.654861 3.1149721 0.73131597
28.647617 3.068846 0.73110098
28.650249 3.0237551 0.731067
28.645769 2.8872089 0.73070401
28.650105 2.8423209 0.73070598
28.652376 2.7972419 0.730672
28.702309 3.0807769 0.90470302
28.769197 2.996664 0.90610802
28.72242 2.9009089 0.904719
28.682987 2.8516719 0.90366
28.691467 2.7617741 0.90366399
28.67975 2.6699359 0.90314299
28.677765 2.6244659 0.903
28.681335 2.488852 0.90276998
28.671089 2.44276 0.90243399
28.676714 2.397994 0.902484
28.667248 2.2615399 0.901963
28.65863 2.215729 0.90167499
28.661903 2.1708219 0.901676
28.65534 2.0348699 0.90125102
28.656336 1.989835 0.90120298
28.653267 1.944543 0.90105897
28.637646 1.808278 0.90043998
28.656244 1.764341 0.90082598
28.640841 1.718413 0.900392
28.650097 1.583756 0.90039903
28.646383 1.538559 0.90025401
28.636747 1.448001 0.89987397
28.650791 1.358699 0.90011501
28.64872 1.313634 0.90001798
28.660349 1.224053 0.900168
28.643719 1.133502 0.89968401
28.626804 1.0429519 0.899158
28.648214 0.99873298 0.89963901
28.638863 0.90860802 0.89934802
28.655214 0.81910098 0.89964098
28.648293 0.77400798 0.89944601
28.623102 0.63868201 0.89872497
28.639885 0.59411597 0.89910901
28.62661 0.54901397 0.89876902
28.630342 0.41435599 0.89876997
28.648771 0.36967301 0.89920199
28.621145 0.32455099 0.89852399
28.643812 0.189979 0.89900702
28.617903 0.145045 0.898377
28.609917 0.100201 0.89818197
28.621527 -0.034448002 0.89842099
28.63525 -0.079377003 0.89875501
28.62891 -0.1242 0.89860702
28.781811 3.8768809 0.56599098
28.633461 -0.25895801 0.89870101
28.791653 3.832294 0.56604302
28.618841 -0.30363101 0.89836001
28.79327 3.7406759 0.56588203
28.613384 -0.39335999 0.898215
28.741007 3.642575 0.56509799
28.643623 -0.48366401 0.89897901
28.696884 3.59148 0.56448299
28.624655 -0.52815598 0.89854097
28.751352 3.5066121 0.56498802
28.628487 -0.618119 0.89863598
28.747957 3.4148879 0.56481999
28.622036 -0.70771801 0.89853102
28.786882 3.373692 0.56524199
28.632694 -0.75291699 0.89881599
28.781075 3.2815859 0.56500602
28.599846 -0.84177899 0.89804298
28.765028 3.1885941 0.56468898
28.622665 -0.93232602 0.89866
28.784483 3.09936 0.56477302
28.613234 -1.0219001 0.89846498
28.789131 3.054255 0.56477499
28.768368 2.9610441 0.564408
28.785124 2.871531 0.564466
28.783442 2.8258569 0.564394
28.77986 2.7345459 0.56424803
7.6287289 -10.641437 -0.99656999
7.545805 -10.631214 -0.99161798
7.4665341 -10.62537 -0.98720598
7.441659 -10.625456 -0.98597401
7.425796 -10.638643 -0.986184
7.369144 -10.665002 -0.98537803
7.3465238 -10.668176 -0.98450601
7.3261352 -10.674611 -0.98399502
7.6753311 -10.800132 -2.2446771
7.569366 -10.805136 -1.48912
7.2737918 -10.707098 -0.98391002
7.2577758 -10.720037 -0.98412001
7.2318521 -10.717998 -0.98270702
7.5843511 -10.853052 -2.2434421
7.1804061 -10.75169 -0.98280197
7.1708341 -10.774502 -0.98409402
7.156949 -10.828609 -0.98758501
7.1438632 -10.884278 -0.99125302
7.5645628 -10.675328 -0.91650599
7.132916 -10.905415 -0.992365
7.4859171 -10.598807 -0.90744197
7.1162291 -10.956202 -0.99549598
7.4486051 -10.617225 -0.90700299
7.4180222 -10.645227 -0.90756798
7.3964901 -10.65016 -0.90692502
7.363543 -10.674857 -0.90715897
7.3249192 -10.691069 -0.906546
7.285161 -10.705626 -0.90577
7.2702618 -10.720234 -0.90613699
7.2447948 -10.756027 -0.90754598
7.205996 -10.771951 -0.906937
7.1920619 -10.788116 -0.90747398
7.152245 -10.839989 -0.90942299
7.1327319 -10.885558 -0.91184402
7.5258169 -10.801766 -1.810521
7.4251232 -10.690797 -1.788191
7.3847208 -10.667937 -1.781961
7.4051728 -10.727273 -0.83377999
7.3301768 -10.697419 -1.781165
7.323719 -10.717043 -0.82964897
7.336154 -10.743308 -1.787457
7.3110051 -10.735036 -0.83030599
7.3112941 -10.743164 -1.785401
7.2971482 -10.751356 -0.83080697
7.2663431 -10.817003 -0.83388197
7.3641438 -10.973561 -1.818928
7.2709098 -10.861619 -0.83704603
7.2414632 -10.862378 -1.794842
7.2231088 -10.864225 -0.83523297
7.4017229 -10.666619 -1.224833
7.371202 -10.658395 -1.222277
7.3155432 -10.68615 -1.221514
7.292892 -10.689249 -1.220467
7.2724652 -10.695606 -1.219852
7.3609281 -10.675833 -1.953337
7.2144799 -10.719552 -1.218658
7.207211 -10.745657 -1.22063
7.1965919 -10.766788 -1.221956
7.162272 -10.826946 -1.225507
7.4708891 -10.482029 -1.528161
7.404387 -10.458178 -1.520611
7.4352269 -10.538 -1.531678
7.36483 -10.685722 -0.56588501
7.3174772 -10.652526 -0.56276101
7.2596068 -10.676677 -0.56216103
7.2525101 -10.702871 -0.56324601
7.2409172 -10.722425 -0.56386298
7.1331859 -10.748665 -1.533329
7.1029768 -10.7398 -1.530208
7.0814619 -10.744162 -1.529189
7.0319748 -10.780476 -1.529817
7.0222168 -10.803055 -1.531689
7.120255 -10.878971 -1.069536
7.1146998 -10.908421 -1.071682
7.0905032 -10.947356 -1.073673
-6.8447528 4.2353802 -1.3324929
-7.0692549 4.21417 -0.229757
-7.0536122 4.2347021 -0.229469
-7.0239611 4.2472448 -0.228312
-7.0021629 4.2496271 -0.22730599
-6.9715862 4.2759671 -0.226436
-6.9324379 4.2682972 -0.224354
-6.9262881 4.2793198 -0.224319
-6.8990889 4.3072028 -0.223665
-6.8980641 4.3211751 -0.223952
-6.879745 4.3251209 -0.22316299
-6.9615841 4.1991501 -0.463056
-6.819809 4.2964091 -1.260407
-6.8575382 4.3557491 -0.22283199
-6.971314 4.2476368 -0.46561
-6.8323278 4.3554978 -0.221613
-6.8972592 4.220964 -0.459066
-6.8346381 4.371448 -0.222115
-6.9249468 4.294014 -0.46392101
-6.9222288 4.3069901 -0.464219
-7.0315528 4.3277712 -0.766105
-6.8143468 4.3031731 -0.45605999
-6.9058771 4.2717972 -0.749668
-6.8029671 4.3110251 -0.455524
-6.897018 4.2955699 -0.750063
-6.781909 4.3275108 -0.454611
-7.0027299 4.1695228 -0.41712099
-7.0256448 4.2109232 -0.42014399
-7.0684218 4.2491632 -0.42445099
-7.0561781 4.2716289 -0.42437801
-7.0334382 4.2880492 -0.42336601
-7.0185828 4.2943292 -0.422555
-6.9705439 4.3107991 -0.41980001
-6.960875 4.3199 -0.41945401
-6.9477382 4.326992 -0.41879699
-6.9341569 4.3629718 -0.41914499
-6.9192562 4.3689742 -0.41833401
-6.906074 4.375946 -0.417678
-6.8767991 4.4026289 -0.416632
-6.880734 4.4196758 -0.41752499
-7.0724249 4.2277999 -0.37559301
-7.0891252 4.2514429 -0.37742001
-7.046267 4.2716188 -0.375296
-7.0244079 4.274138 -0.37396899
-7.0051222 4.2924428 -0.37331501
-6.836762 4.2446728 -0.93268001
-6.82377 4.2516508 -0.93150502
-6.9164639 4.332974 -0.94880199
-6.8516831 4.251348 -0.64723301
-6.835989 4.2710309 -0.646725
-6.8757539 4.2363439 -0.88876998
-6.854176 4.2384582 -0.88627601
-6.853251 4.2523088 -0.88705897
-6.8589001 4.298717 -0.89076698
-7.0722852 4.2035432 -0.26133001
-7.043417 4.2024479 -0.25979
-7.0480561 4.248323 -0.26117599
-7.0664649 4.2729688 -0.262757
-7.0454311 4.2904582 -0.262097
-6.967093 4.3097892 -0.85576499
-6.9859762 4.2866311 -0.25890401
-6.8244309 4.2439661 -0.835078
-6.9501829 4.2811828 -0.25690299
-6.8243051 4.2723789 -0.83682799
-6.9100242 4.287467 -0.25497401
-6.8240671 4.3009701 -0.83858597
-6.9393711 4.3330679 -0.257673
-6.9320922 4.3579559 -0.257938
-6.9136949 4.3620281 -0.25709301
-6.8394828 4.2235842 -0.54978001
-6.889019 4.3770218 -0.256212
-6.8464322 4.255939 -0.55179697
-6.8643198 4.3917551 -0.25532299
17.257555 -5.3845301 -2.0731211
17.326595 -5.5549459 -1.319033
16.858847 -5.4024911 -1.918784
16.84446 -5.4269791 -1.918095
16.767181 -5.4890609 -1.911782
16.735725 -5.5076842 -1.90896
16.708014 -5.527492 -1.906612
17.317736 -5.945085 -1.32919
17.313288 -6.0350318 -1.331439
17.309196 -6.0641031 -1.331961
16.649849 -5.6534791 -1.9050829
17.31819 -6.0978818 -1.3336461
16.624233 -5.7322769 -1.905405
17.331682 -6.1948371 -1.337559
16.644947 -5.7688351 -1.90922
17.336683 -6.2273998 -1.338912
16.631912 -5.8229709 -1.909995
17.370817 -6.3017182 -1.343799
16.685959 -5.9011822 -1.919283
17.374769 -6.3650522 -1.3460079
17.385057 -6.3998971 -1.34786
16.689415 -5.4510088 -2.436151
17.340187 -6.4451938 -1.345767
16.677378 -5.5050468 -2.4370799
17.298922 -6.49155 -1.343984
16.971848 -5.3883581 -1.822872
16.65164 -5.525352 -2.4344399
17.294062 -6.5207291 -1.344507
16.863823 -5.4115739 -1.812131
16.603836 -5.5671792 -2.429769
17.291636 -6.5820942 -1.346238
16.701159 -5.4157729 -1.7948411
16.591417 -5.6210098 -2.430702
17.25 -6.6281538 -1.344458
16.736336 -5.4858871 -1.801208
16.563902 -5.6696892 -2.429286
17.184147 -6.6646438 -1.340536
16.671017 -5.4928808 -1.794476
16.556614 -5.6962328 -2.429605
16.575436 -5.761281 -2.4355681
16.603313 -5.8299909 -2.4430301
16.591553 -5.7277861 -1.794947
16.56172 -5.7463632 -1.792493
16.660831 -5.8701239 -1.807892
16.750332 -5.9321971 -1.81985
16.847078 -5.4042492 -1.702827
16.838341 -5.4305782 -1.70285
17.409021 -5.1416788 -2.3017361
16.791668 -5.5320778 -1.701681
16.752199 -5.6652188 -1.702455
16.967669 -5.389967 -1.606818
16.827406 -5.4023318 -1.5937721
16.661404 -5.6675382 -1.586835
16.794886 -5.743813 -1.60217
16.751842 -5.7581091 -1.598568
16.76502 -5.851531 -1.603091
16.767141 -5.4967051 -2.125505
16.716269 -5.8635411 -1.598884
16.715025 -5.5083609 -2.119539
16.727379 -5.89713 -1.601125
16.67794 -5.52495 -2.1156571
16.60788 -5.5884042 -2.1097579
16.589474 -5.6111202 -2.10848
16.599136 -5.6435461 -2.1111081
16.569778 -5.7207818 -2.1109371
16.554928 -5.744689 -2.1101799
16.538195 -5.7972078 -2.110507
16.571644 -5.8677411 -2.1178479
16.603176 -5.9085221 -2.1236019
16.64736 -5.983727 -2.132525
17.782097 -17.927042 -2.0800321
17.906487 -17.84306 -1.930016
17.756979 -17.861738 -1.9224989
17.765911 -18.163408 -1.0269901
17.714643 -17.875277 -1.92088
17.673159 -18.125149 -1.022615
17.631836 -17.847466 -1.914412
17.500877 -17.882929 -1.909068
17.49156 -18.166149 -1.018223
17.450298 -17.887365 -1.906445
15.675029 -18.095161 -1.965605
16.758938 -17.952513 -1.871437
17.990253 -17.927422 -1.7871571
16.66523 -18.022221 -1.870608
16.567665 -18.030062 -1.865695
17.82032 -17.982748 -1.781175
16.569284 -18.146858 -1.873179
17.679724 -17.952799 -1.771975
16.571211 -18.206743 -1.8770829
17.676216 -18.006174 -1.774827
16.381697 -18.111782 -1.868497
17.570734 -18.011274 -1.777629
16.3507 -18.192766 -1.871977
17.480396 -18.03171 -1.774006
16.241018 -18.127468 -1.861778
17.460032 -18.067669 -1.774996
17.432819 -18.153986 -1.7785389
17.340773 -18.229868 -1.778093
17.174557 -18.284018 -1.772547
16.916477 -18.030973 -1.5955909
16.857986 -18.025232 -1.59247
16.765541 -18.039854 -1.588841
16.63191 -18.123808 -1.5870529
16.632633 -18.18227 -1.590283
16.661713 -18.330441 -1.599776
16.505159 -18.331158 -1.592448
17.465059 -17.961836 -1.467963
16.57275 -18.524347 -1.606274
17.359722 -17.965849 -1.463439
17.275375 -18.048647 -1.4637541
17.127861 -18.064072 -1.457976
17.03916 -18.083948 -1.45504
16.239244 -18.797789 -1.606061
16.873051 -18.077244 -1.4474061
16.798059 -18.110785 -1.445794
16.605675 -18.072781 -1.435509
16.635899 -18.163811 -1.441394
16.633789 -18.219425 -1.4441
16.464422 -18.205101 -1.436065
16.492596 -18.294882 -1.441819
16.546907 -18.473476 -1.4532109
16.221924 -18.222462 -1.426548
16.10877 -18.15177 -1.41812
16.142862 -18.30747 -1.427524
16.168283 -18.454384 -1.436119
16.308498 -18.676012 -1.45341
16.245266 -18.722481 -1.4531389
15.871213 -18.4041 -1.421032
15.932675 -18.595367 -1.433489
16.570683 -18.057976 -2.1705461
16.427176 -18.072035 -2.162492
16.375837 -18.072519 -2.159292
16.31391 -18.061029 -2.1545589
16.196001 -18.101715 -2.1501441
15.923497 -18.138813 -2.1359329
15.899903 -18.169687 -2.1367559
15.750892 -18.171701 -2.1277399
8.5839634 -22.727777 -1.145252
8.5827045 -22.834696 -1.1508141
7.6891761 -22.348099 -0.25907099
7.6486139 -22.344864 -0.258816
7.5959649 -22.305548 -0.257819
7.4910722 -22.344627 -0.25806999
7.459394 -22.367632 -0.258362
7.4251709 -22.38299 -0.258497
7.3401361 -22.484076 -0.26003799
7.2934899 -22.461174 -0.25939199
7.2244458 -22.367697 -0.25729901
7.1263838 -22.427937 -0.258019
7.0866489 -22.425611 -0.25780299
7.6317501 -22.336952 -0.117028
6.6123838 -22.39465 -0.25523999
7.593123 -22.339312 -0.116951
6.5717912 -22.520725 -0.25751001
7.5266919 -22.376066 -0.117258
7.462636 -22.420355 -0.117675
8.498435 -22.187603 -0.83036798
8.5843859 -22.522413 -0.84527898
8.5216932 -22.682236 -0.85099101
8.4905691 -22.708582 -0.85165602
6.5649719 -22.546684 -0.117146
6.5253391 -22.543386 -0.117013
8.5304031 -22.93125 -1.449538
8.3975859 -22.792789 -1.437899
8.4239635 -22.97843 -1.450264
8.5530758 -22.536779 -0.55626798
8.512434 -22.536945 -0.55589199
8.2037268 -22.13718 -0.54104197
8.6232319 -21.827871 -1.19087
7.1441112 -22.006498 -0.66684598
8.6271219 -21.939812 -1.197166
7.082912 -21.93574 -0.66369599
8.5568314 -21.862034 -1.1914639
6.9899039 -22.004816 -0.66529399
8.5557013 -22.170267 -1.2085921
7.979321 -22.175179 -0.54015899
8.4621162 -22.030603 -1.199007
7.9581332 -22.227133 -0.541538
8.7137423 -22.797709 -1.246603
8.6283216 -22.899946 -1.250681
6.777844 -22.061399 -0.66535401
5.8172488 -22.3081 -0.80460399
6.6406078 -22.112724 -0.66596597
5.80264 -22.398382 -0.80830401
6.632277 -22.213039 -0.66953802
6.484735 -22.363764 -0.67372501
6.341651 -22.399818 -0.67381603
6.27701 -22.442602 -0.67483401
6.2376742 -22.43882 -0.674371
7.1746268 -22.248903 -0.39537001
7.0133219 -22.106789 -0.39086899
6.9824309 -22.131001 -0.39128801
6.9473119 -22.141809 -0.39135
6.843627 -22.179771 -0.39168799
6.8580418 -22.352903 -0.39608401
6.6772099 -22.264874 -0.392865
6.674859 -22.386375 -0.395886
6.590312 -22.361059 -0.394786
6.438488 -22.501972 -0.39749601
6.3751841 -22.550694 -0.398388
6.3052282 -22.576258 -0.39866501
-9.7010078 28.385258 -1.31678
-9.6176014 28.428967 -1.317228
-9.5825872 28.470652 -1.318534
-9.4439011 28.496843 -1.317107
-9.3928204 28.49094 -1.315847
-9.3424101 28.486843 -1.3146909
-9.193264 28.479574 -1.311523
-9.1756868 28.575809 -1.3158031
-9.1768599 28.730982 -1.3232599
-9.1690187 28.548748 -1.138146
-9.0675163 28.688931 -1.142373
-8.9829187 28.577682 -1.1362571
-8.8871603 28.583046 -1.134903
-8.7860832 28.571066 -1.13274
-8.7364969 28.567802 -1.131795
-8.6450653 28.585705 -1.1310771
-8.6053686 28.773563 -1.138431
-9.654952 28.561718 -2.0344441
-9.1665993 28.723597 -2.0328131
-9.2019787 28.986864 -2.0523131
-9.170434 29.043224 -2.055476
-8.9451933 28.799101 -2.0324471
-8.9309273 28.910347 -2.0399561
-8.8826084 28.913057 -2.0389249
-8.7453175 28.945353 -2.037775
-8.6993351 28.955381 -2.037344
-9.6719322 28.361319 -1.8441809
-8.6643009 29.001612 -2.0397589
-9.68402 28.538815 -1.855931
-9.490387 28.404968 -1.842398
-9.4425774 28.408644 -1.841437
-9.3476334 28.417503 -1.839645
-9.791048 28.602196 -0.79611403
-9.2489567 28.41482 -1.837033
-9.7192726 28.538355 -0.79315901
-9.2055931 28.431351 -1.837039
-9.5718641 28.396832 -0.78677303
-9.1552696 28.575994 -1.84519
-9.479413 28.413794 -0.78603703
-9.4226303 28.390913 -0.78456199
-9.3327999 28.414829 -0.784087
-9.2761774 28.539179 -0.78717601
-9.1809464 28.547424 -0.78616601
-8.8556871 29.023743 -1.867173
-9.1868629 28.715906 -0.79146397
-8.7807283 28.940531 -1.860003
-8.6934118 28.975895 -1.860291
-8.6140413 29.037594 -1.8625031
-9.7710457 28.314537 -0.611238
-9.6830406 28.487217 -0.61453199
-9.5878067 28.353098 -0.61002898
-9.5400476 28.356907 -0.60956401
-9.3885908 28.343061 -0.60744202
-9.3409214 28.346535 -0.60697699
-9.2869692 28.33095 -0.60596001
-9.2136536 28.553331 -0.610744
-9.9467583 28.723143 -1.453528
-9.2176065 28.716227 -0.61491603
-9.6080389 28.462896 -1.433084
-9.5581675 28.461088 -1.4319561
-9.4572382 28.453287 -1.429472
-9.3596182 28.454739 -1.427549
-9.3105249 28.45439 -1.426533
25.942511 -1.368466 -2.109226
25.934179 -1.408739 -2.1087
25.911364 -1.488961 -2.1071539
25.928055 -1.571561 -2.109113
25.913443 -1.611361 -2.1080561
25.937691 -1.694752 -2.11076
25.941799 -1.776724 -2.1116569
25.948723 -1.818102 -2.1125481
26.378836 -0.86450797 -1.986881
25.944496 -1.89965 -2.1127739
26.346251 -1.028774 -1.98479
26.000776 -2.0681701 -2.1190331
26.25491 -1.107422 -1.977569
25.985399 -2.1078589 -2.1179781
26.209148 -1.146476 -1.97394
25.992163 -2.1904919 -2.119231
26.149305 -1.225764 -1.969326
25.976845 -2.2712801 -2.118573
26.026606 -2.317024 -2.1233611
25.961573 -1.338763 -1.954347
25.961321 -2.39292 -2.1182401
25.897169 -1.416602 -1.949403
25.965191 -2.475548 -2.1193531
25.906139 -1.498688 -1.9506069
25.986843 -2.518851 -2.1216631
25.89362 -1.538635 -1.949787
25.968174 -2.640404 -2.121191
25.907389 -1.661878 -1.951659
25.949942 -2.679564 -2.1199591
25.904556 -1.7024519 -1.951665
25.95937 -2.721734 -2.121207
25.899673 -1.7428809 -1.951506
25.953602 -2.8447051 -2.1219749
25.896564 -1.865122 -1.952058
25.974632 -2.8883541 -2.1242859
25.899376 -1.906139 -1.9525599
25.969872 -2.9290321 -2.124294
25.914042 -1.948108 -1.954054
25.969046 -3.0528419 -2.1255951
26.03112 -2.0805759 -1.9646831
25.967979 -3.0940051 -2.1259589
25.948189 -2.1145861 -1.958083
25.928759 -2.153847 -1.956768
25.987217 -2.282119 -1.962608
25.981422 -2.322633 -1.962451
25.939884 -2.400882 -1.959694
25.917942 -2.480747 -1.958554
25.925718 -2.5225379 -1.959553
25.913315 -2.603441 -1.959275
25.918491 -2.6860859 -1.960448
25.89567 -2.765846 -1.959344
25.908926 -2.808398 -1.96084
25.911762 -2.97335 -1.962728
25.918413 -2.1640871 -2.5791039
25.924948 -2.2465141 -2.5806069
25.919336 -2.328012 -2.5808721
25.927261 -2.451714 -2.5830221
25.940529 -2.5762761 -2.585845
25.931442 -2.6986721 -2.586334
25.93231 -2.780982 -2.587415
25.937206 -2.9462831 -2.5900381
25.932343 -2.986901 -2.5900481
-9.041481 13.594981 -1.204959
-8.9776077 13.590474 -1.201292
-9.0850296 13.668479 -0.634758
-9.1407499 13.637735 0.51642799
-8.9895248 13.617707 -0.62958902
-9.0325518 13.569085 0.51434797
-8.984376 13.655129 -0.63097101
-9.0062094 13.575126 0.51423502
-9.0200491 13.525426 -1.10331
-9.0528088 13.524235 0.037914999
-9.081193 13.69904 0.036449999
-8.9530468 13.605343 -1.105279
-9.0185719 13.652301 0.037317
-8.9340191 13.596087 0.60912198
-8.9827223 13.712913 0.612297
-8.864212 13.672297 0.61004102
-9.4963541 13.646209 -1.62528
-9.0433493 13.572974 -1.011784
-9.0685663 13.550063 0.13270301
-9.0125322 13.57247 -1.010341
-9.4228983 13.67739 0.71372199
-9.1427689 13.703066 0.13198499
-8.9755602 13.607644 -1.010793
-9.0458117 13.650989 0.132605
-8.9429111 13.649158 -1.0118411
-9.0029974 13.677818 0.13278
-9.0505943 13.53848 -0.437958
-9.0489531 13.495864 0.70313501
-9.0276814 13.549519 -0.437718
-9.1459398 13.681652 0.70963901
-8.9780197 13.868631 0.132504
-8.804492 13.688498 -2.1639769
-9.0418892 13.615016 -0.440139
-9.0562449 13.595463 0.70594901
-9.0174494 13.673027 0.70749098
-8.9978848 13.575141 -0.342682
-8.8707542 13.613709 0.79879999
-9.023385 13.691205 -1.5006191
-9.026762 13.662031 -0.34562999
-8.9012098 13.704101 0.80227
-8.9682169 13.699862 -1.497925
-8.9962654 13.707004 -0.34615201
-9.0129023 13.582487 -0.81985098
-8.9781561 13.620795 -0.82045299
-8.954031 13.630056 -0.81998998
-9.0558739 13.502381 -0.247188
-9.1529226 13.68816 -0.253034
-9.0216742 13.630543 -0.249312
-8.9930344 13.633247 -0.248834
-9.0493336 13.522606 -1.873387
-8.9381084 13.493398 -1.861793
-8.9041204 13.487907 -1.858619
-9.0763559 13.635805 -0.69536102
-8.8674297 13.522528 -1.859486
-8.9885454 13.596798 -0.69060099
-8.8361483 13.565413 -1.861649
-8.9492912 13.628554 -0.69066602
-8.8254128 13.59424 -1.863891
-9.0128679 13.554609 -1.296214
-8.9989538 13.578747 -1.297258
-8.9564037 13.605449 -1.296904
26.732782 -11.816986 -1.194423
26.734009 -11.86783 -1.195513
26.738783 -11.920347 -1.196793
26.721615 -12.064202 -1.199044
26.668348 -12.29344 -1.20157
26.735649 -12.375778 -1.2061909
26.699789 -12.461292 -1.206496
26.725006 -12.575717 -1.2100151
26.697515 -12.665532 -1.210797
27.003361 -13.132346 -1.0540431
27.018759 -13.245443 -1.056837
27.024498 -13.301125 -1.058136
27.001825 -13.448792 -1.0602241
27.037462 -13.519968 -1.062945
27.124598 -13.617557 -1.068089
27.007641 -12.483685 -0.86388803
27.01852 -12.540391 -0.86514997
27.036524 -12.600567 -0.86669803
27.023033 -12.749942 -0.86872602
27.00453 -12.793118 -0.86884302
26.701742 -13.933592 -1.059002
27.036406 -12.860489 -0.870965
26.686157 -14.086344 -1.061597
27.01432 -13.006731 -0.87270802
26.890894 -14.250002 -1.072432
27.029535 -13.066558 -0.87418699
27.028475 -13.118553 -0.87502098
27.039043 -13.28193 -0.87812698
27.016108 -13.323377 -0.878102
27.018295 -13.430469 -0.88001698
27.164549 -13.610624 -0.88770902
27.027035 -13.594367 -0.88309699
26.894728 -13.633585 -0.87963599
26.999477 -12.393991 -0.68451601
26.5368 -13.555698 -0.86703998
27.012386 -12.503152 -0.68633902
26.488272 -13.636116 -0.86694801
27.001394 -12.601519 -0.687415
26.535686 -13.713625 -0.86979198
27.002983 -12.654097 -0.688178
26.629982 -13.869192 -0.87548
26.599918 -13.960146 -0.87617803
26.54417 -13.983973 -0.87486303
26.896238 -14.33387 -0.89210999
26.838257 -14.357002 -0.890724
26.927868 -13.026064 -0.512609
26.974463 -14.286889 -0.71115297
26.904251 -13.11931 -0.51321298
26.925077 -13.234635 -0.51498401
26.925476 -13.287493 -0.515607
26.906326 -13.383562 -0.51635498
26.934994 -13.503894 -0.51836699
26.913307 -13.599229 -0.51906902
26.486851 -13.644613 -0.51076502
26.46158 -13.684233 -0.51071799
26.551634 -13.890685 -0.515113
26.577223 -13.957535 -0.51645702
26.581484 -14.013232 -0.51722598
26.50206 -14.131466 -0.51706803
6.8404632 82.560013 -0.31286901
7.2304158 82.537148 -0.312756
7.3629541 82.557693 -0.31288999
7.4923081 82.542168 -0.31279799
7.8846941 82.542046 -0.31286499
8.0157433 82.543625 -0.312884
8.1483927 82.560913 -0.313003
8.5415506 82.561646 -0.31309
8.6710625 82.546265 -0.313007
8.8043737 82.566483 -0.31314901
9.1973858 82.560051 -0.31322801
9.3352108 82.617172 -0.31360599
9.475749 82.695923 -0.31412199
9.8687229 82.678413 -0.314125
6.7694898 82.564484 0.179932
9.9998274 82.672859 -0.314114
6.898716 82.547905 0.180003
10.25235 82.583611 -0.31365201
7.1585422 82.531929 0.180096
10.512839 82.559189 -0.31355301
7.4212608 82.54715 0.180225
10.648961 82.592293 -0.31378901
7.5531368 82.559418 0.180288
10.912856 82.592262 -0.31389999
7.813417 82.545364 0.180383
11.176656 82.589531 -0.31394699
8.0751114 82.544563 0.180519
11.442125 82.597725 -0.314118
8.336606 82.540802 0.180611
11.569669 82.563934 -0.31393999
8.4675102 82.539673 0.18068101
8.7310476 82.552704 0.18081599
8.9927349 82.546867 0.180911
9.1237411 82.544701 0.18098199
9.3995485 82.660957 0.181089
9.6647539 82.678825 0.181179
9.7977028 82.689491 0.18124799
6.7467561 82.514519 0.67265898
10.190228 82.666473 0.18142299
6.8778982 82.521881 0.67283303
7.009419 82.533028 0.67303002
7.3997412 82.515282 0.673298
7.5313878 82.525589 0.67349702
7.6630859 82.53569 0.67369598
11.102736 82.579933 0.181917
8.0554838 82.534752 0.67408103
11.501708 82.598267 0.182088
8.1863422 82.534065 0.67422497
11.631195 82.578239 0.18217
8.3164129 82.525215 0.67432398
11.769656 82.621384 0.182234
8.7098751 82.529121 0.67475802
12.162102 82.587021 0.182423
8.8435946 82.553253 0.67505002
12.300079 82.623329 0.18249001
9.1044369 82.539101 0.67523998
11.60815 82.547455 0.67840099
11.743194 82.566864 0.67870098
12.279477 82.610512 0.67967498
-10.471726 -0.58551198 -1.6469851
-10.546728 -0.491191 -1.658088
-10.491832 -0.40367401 -1.647615
-10.426381 -0.31649199 -1.635481
-10.902994 -0.68373501 -2.231704
-10.711239 -0.62084001 -1.368704
-10.679205 -0.60088497 -1.363771
-10.67024 -0.56616902 -1.361967
-10.427187 -0.23380201 -1.6346509
-10.710473 -0.53545398 -1.367386
-10.713135 -0.50165701 -1.367311
-10.433257 -0.15139399 -1.634818
-10.392211 0.015004 -1.626507
-10.43775 0.096372001 -1.6336499
-10.441472 0.195317 -1.633767
-10.450111 0.27789101 -1.634925
-10.738191 -0.418697 -1.304492
-10.452188 0.36056101 -1.635084
-10.663404 -0.37973899 -1.293645
-10.636833 -0.36111799 -1.289742
-10.629073 -0.32696801 -1.2882839
-10.449676 0.443205 -1.634577
-10.63307 -0.293394 -1.288499
-10.600418 -0.27471501 -1.2837681
-11.160837 -0.65487099 -1.298321
-10.641839 -0.243297 -1.289223
-11.065143 -0.61103499 -1.284997
-10.468209 0.52627403 -1.637724
-10.627769 -0.20881 -1.286949
-11.028547 -0.57265401 -1.279637
-10.623484 -0.175007 -1.286043
-10.997749 -0.535137 -1.275056
-10.602502 -0.15722901 -1.282971
-10.995148 -0.51740301 -1.274495
-10.454548 0.60872197 -1.635554
-10.617847 -0.124189 -1.284844
-10.968118 -0.480308 -1.27046
-10.933057 -0.442956 -1.26535
-10.924378 -0.42493001 -1.2639951
-10.665463 -0.358051 -2.0750959
-10.49346 0.692936 -1.64235
-10.551403 0.77866399 -1.652464
-10.618237 0.060626 -1.283627
-10.593301 0.094783999 -1.279971
-10.612143 0.14472599 -1.282349
-10.637084 0.22848301 -1.285491
-10.760749 0.61901897 -1.30234
-10.839008 0.65564799 -1.313319
-10.863695 0.69074798 -1.316826
-10.853231 0.70759201 -1.315411
-10.86325 0.75951499 -1.31695
-10.832891 0.77544498 -1.3127739
-10.90739 0.795959 -1.323231
-10.903141 0.84754598 -1.322837
-11.023006 0.87095898 -1.339642
-11.363625 0.89267099 -1.318108
7.4571042 -22.104673 -1.936924
7.4790788 -22.288271 -1.95346
7.4069309 -22.188253 -1.9428329
7.2489471 -22.18087 -1.93799
7.189414 -22.116238 -1.930802
7.1927338 -22.493366 -1.9637589
6.81533 -22.535667 -1.9579951
6.6536641 -22.38188 -1.940591
6.5659471 -22.612379 -1.95876
6.5071568 -22.54208 -1.951206
6.330924 -22.601536 -1.9524
6.2128978 -22.734682 -1.961511
7.7495098 -21.92001 -1.50867
7.663588 -22.122503 -1.520848
6.2958722 -22.662958 -1.67339
6.2808952 -22.749628 -1.679755
6.2500238 -22.778578 -1.681391
6.634572 -22.172182 -1.5032361
6.4496679 -22.192402 -1.501201
6.403985 -22.165949 -1.498491
7.2365561 -21.839226 -1.3534499
7.163733 -21.96969 -1.360456
7.1221781 -21.959875 -1.359044
7.057303 -21.997227 -1.360235
7.862165 -22.015251 -1.186993
7.7638159 -21.958717 -1.182055
7.676384 -21.931822 -1.1789989
7.6230321 -22.002888 -1.182067
6.7029319 -22.088978 -1.359768
7.5764632 -21.980705 -1.1800081
6.6424441 -22.142185 -1.362165
7.5503001 -22.132696 -1.18814
6.6360698 -22.38114 -1.377553
7.4724302 -22.133463 -1.186851
7.449327 -22.181019 -1.189151
7.3318491 -22.179571 -1.187099
6.4834609 -22.520323 -1.38402
7.297895 -22.194723 -1.187396
7.1737351 -21.932631 -1.1704921
6.3575292 -22.62174 -1.388551
7.0625811 -21.945005 -1.1693799
6.3465638 -22.721981 -1.39491
6.3126259 -22.739487 -1.395507
6.2282081 -22.857353 -1.4018559
6.60496 -22.329651 -1.184212
6.603168 -22.454834 -1.191349
6.5618591 -22.578901 -1.197841
5.7910419 -22.51144 -2.215517
6.4370852 -22.823343 -1.210066
6.2283401 -22.629938 -1.196043
6.3656979 -22.721085 -2.107877
6.3058972 -22.784885 -2.1189439
6.2231388 -22.766029 -2.1151831
6.1885748 -22.781406 -2.115819
6.0729551 -22.783098 -2.1132751
4.4705448 -17.989044 -0.162287
4.4306321 -17.949274 -0.16138899
4.3988218 -17.942471 -0.16116001
4.3045149 -17.925756 -0.160548
4.271914 -17.914843 -0.16023999
4.5851221 -17.944302 0.50744599
4.2253208 -17.972853 -0.16123401
4.5117021 -17.892361 0.50626701
4.1761689 -18.020864 -0.162035
4.475131 -17.866285 0.505678
4.163404 -18.097483 -0.163498
4.4121962 -17.854864 0.50517303
4.3577499 -17.878098 0.50524002
4.330719 -17.890623 0.50528997
4.2775002 -17.919586 0.50545502
4.2426052 -18.028137 0.50692499
4.3629599 -17.96455 0.61811602
4.3255339 -17.934307 0.61723697
4.2303772 -17.913355 0.61618
4.1987181 -17.906216 0.61582702
4.1725078 -17.922398 0.61599898
4.0878992 -17.945499 0.61594898
4.0721059 -18.008337 0.61717099
4.5647669 -17.949116 0.731004
4.5285182 -17.925089 0.73006499
4.462481 -17.902205 0.72891301
4.3989649 -17.888666 0.72803801
4.3467178 -17.921719 0.72850102
4.3186831 -17.930338 0.72850901
4.2771039 -18.009748 0.73030603
4.232841 -18.07947 0.73182702
4.4217768 -18.005472 0.84342498
4.3926759 -18.010323 0.84330899
4.291955 -17.968332 0.841003
4.262465 -17.971029 0.840819
4.2215738 -17.925028 0.838947
4.1364918 -17.946409 0.83887202
4.1257081 -18.030712 0.84152502
4.1023269 -18.060436 0.842287
4.6093102 -17.978785 0.28430101
4.5308771 -17.907515 0.28384301
4.493763 -17.879528 0.283647
4.4345269 -17.883713 0.28351
4.3757601 -17.889511 0.28338
4.3202429 -17.908878 0.283308
4.2968011 -17.936926 0.28334901
4.256011 -18.020205 0.28354299
4.521059 -17.907482 -0.27739599
2.4774809 -4.2933831 -1.67047
2.56019 -5.010685 -1.283134
2.652684 -4.3783321 -1.6740561
2.6020851 -4.38937 -1.669006
2.551384 -4.3825812 -1.658807
2.509969 -4.3919358 -1.655025
2.4676671 -4.39925 -1.650601
2.7616091 -4.4729648 -1.6669199
2.6988571 -4.4497542 -1.650125
2.6451919 -4.440649 -1.63895
2.6030841 -4.4508171 -1.635272
2.52648 -4.7470822 -1.437296
3.004477 -5.1610322 -0.84801197
2.9488649 -5.1597648 -0.84370899
2.572536 -5.1664991 -0.87329
2.8972411 -5.164886 -0.840657
2.53034 -5.1859951 -0.87336802
2.865319 -5.20608 -0.84418303
2.4724431 -5.1710582 -0.867154
2.785995 -5.1579571 -0.831734
2.423774 -5.1753602 -0.864582
2.73932 -5.1703558 -0.830248
2.248008 -4.8675542 -1.435647
2.3657041 -5.1575398 -0.85803598
2.689043 -5.175303 -0.82750797
2.3054969 -4.4587698 -1.288178
2.3406301 -5.2153072 -0.86540002
2.632699 -5.167407 -0.82257497
2.3362801 -4.6322832 -1.334264
2.294055 -5.247508 -0.86748099
2.577702 -5.1825538 -0.82110399
2.3049469 -4.6638541 -1.338518
2.5480731 -5.2288508 -0.82588398
2.494518 -5.224875 -0.82189
2.483918 -5.4300299 -0.85120302
2.437237 -5.443388 -0.85034502
2.165724 -5.1811452 -1.793975
2.2022049 -5.3950658 -1.864072
2.447288 -5.0071759 -1.330487
2.396394 -5.0259418 -1.329607
2.360018 -5.0546489 -1.332619
2.118346 -4.5386071 -1.805005
2.3753281 -5.2183762 -2.0729711
2.2735879 -5.1003318 -2.0183671
2.182404 -5.2359362 -2.052537
-24.359955 -11.766381 -2.1403251
-24.372721 -11.677311 -2.1378269
-24.348576 -11.617797 -2.133677
-24.329166 -11.466113 -2.126343
-24.678432 -10.460056 -1.312124
-25.605961 -10.209993 -2.3463049
-24.454744 -11.901031 -1.990072
-24.445311 -11.848282 -1.9874851
-24.476833 -11.720997 -1.9827271
-24.461651 -11.665774 -1.9796439
-24.454271 -11.566999 -1.975525
-24.437532 -11.46392 -1.970639
-24.403833 -11.400426 -1.965959
-24.43508 -11.320984 -1.965355
-24.422779 -11.220941 -1.960947
-24.915096 -10.236454 -2.1245871
-24.949984 -10.204901 -2.12625
-25.192442 -10.213838 -2.145689
-25.416792 -10.213873 -2.163379
-25.541954 -10.218648 -2.173439
-24.511414 -11.863077 -1.827466
-24.596031 -11.808656 -1.831223
-24.547075 -11.640734 -1.82232
-24.422285 -11.532301 -1.810432
-24.586288 -11.564122 -1.822374
-24.517786 -11.388481 -1.811991
-24.525324 -11.344659 -1.811056
-24.419243 -11.247015 -1.800797
-25.422318 -10.442617 -2.0072179
-24.368654 -11.082448 -1.792042
-25.571533 -10.458061 -2.018661
-24.382902 -11.042318 -1.7916991
-25.634403 -10.43694 -2.022599
-24.393469 -11.00049 -1.79106
-25.614714 -10.286838 -2.0163431
-25.548332 -10.212373 -2.0091071
-24.424128 -10.828307 -1.787583
-24.471708 -10.75713 -1.788492
-24.424484 -10.643108 -1.781738
-24.490816 -10.626569 -1.785684
-24.46306 -10.521922 -1.780526
-24.434895 -10.417406 -1.7754
-24.484924 -10.347611 -1.776602
-24.565666 -10.336791 -1.781729
-24.872475 -10.238083 -1.799491
27.862415 6.393002 -0.293441
27.862518 6.3471632 -0.29325801
27.852783 6.2991748 -0.29290101
27.846533 6.1604562 -0.292292
27.846252 6.1147189 -0.29211
27.845896 6.0689979 -0.29192799
27.85416 5.9338579 -0.29159901
27.855465 5.8885918 -0.29145199
27.852776 5.8425312 -0.291235
27.828568 5.7012262 -0.29034799
27.851067 5.6603508 -0.29058599
27.850744 5.5694871 -0.290301
27.848166 5.4784198 -0.289938
27.811405 5.4261718 -0.28912801
27.859455 5.34478 -0.28971601
27.860071 5.2545648 -0.289424
27.842682 5.161078 -0.28885999
27.848633 5.1170988 -0.28881899
27.854418 5.0280862 -0.28863099
27.846121 4.936583 -0.28824201
27.849745 4.8922768 -0.288167
27.842436 4.7562938 -0.28766799
27.833933 4.7100692 -0.28738299
27.815483 4.662272 -0.28692299
27.836678 4.5313749 -0.28694901
27.819897 4.484045 -0.28652501
27.84256 4.4429059 -0.28679901
27.837008 4.308022 -0.28637201
27.837648 4.2635231 -0.28626201
27.816458 4.2158341 -0.285768
27.84148 4.0857821 -0.28590101
27.827904 4.0393739 -0.28554699
27.82217 3.9941211 -0.28533301
27.816423 3.860008 -0.284942
27.818329 3.8158989 -0.28486899
27.831842 3.728857 -0.28493699
27.875607 5.4890809 -0.45504701
27.886473 5.4004722 -0.45493799
27.859383 5.3500929 -0.45409599
27.867842 5.2613149 -0.45389801
27.881914 5.1734948 -0.45388299
27.854416 5.1234021 -0.45304099
27.812738 4.9808788 -0.451534
27.818382 4.9369569 -0.451482
-13.822318 7.2118368 -1.648973
-13.73495 7.2227731 -1.640028
-13.672504 7.2455521 -1.634401
-13.687066 7.5207071 -1.091993
-13.604515 7.5323019 -1.086159
-13.579128 7.54637 -1.084753
-14.23019 7.7283602 -1.044795
-13.43653 7.2634439 -1.518608
-13.152091 7.1693339 -1.484779
-13.019833 7.1266809 -1.4691091
-12.965111 7.1501198 -1.464666
-12.991134 7.2162328 -1.470637
-12.937995 7.2403078 -1.4664201
-12.939439 7.2673392 -1.467936
-13.160723 7.4395132 -1.499222
-12.873124 7.3365898 -1.464716
-14.030834 7.3292642 -1.48868
-12.82379 7.33599 -1.459677
-12.724701 7.3600912 -1.4508719
-12.725864 7.38696 -1.452388
-12.695718 7.3964558 -1.449836
-12.658984 7.4545469 -1.4491709
-12.607816 7.6100712 -1.452305
-12.599291 7.6847219 -1.455479
-12.522618 7.6664858 -1.44683
-12.728986 7.8412271 -1.476941
-12.552516 7.9250431 -1.464035
-12.591512 8.0028343 -1.4722379
-11.971622 7.312757 -1.792838
-12.559157 8.0103111 -1.469461
-11.929877 7.3138199 -1.787648
-13.006701 7.2339702 -1.8301229
-12.555395 8.0625134 -1.472033
-12.848778 7.2022409 -1.808672
-12.781898 7.218297 -1.80142
-12.717094 7.2093058 -1.792883
-11.829509 7.5076318 -1.788693
-13.950434 7.6314702 -1.305687
-13.953139 7.6608729 -1.3071409
-13.935225 7.7637248 -1.30989
-12.387662 7.2506242 -1.66899
-12.33482 7.2722788 -1.66414
-14.1808 -15.695906 -1.64175
-14.228378 -15.698782 -1.644678
-14.290589 -15.717906 -1.6494991
-14.413793 -15.703402 -1.655678
-14.492297 -15.739747 -1.662563
-14.569614 -15.774408 -1.669276
-14.70157 -15.767032 -1.676486
-14.751004 -15.770201 -1.6795861
-14.791039 -15.76299 -1.6814801
-14.918001 -15.74828 -1.688001
-14.962179 -15.745087 -1.690411
-13.89489 -15.784998 -1.50466
-15.013803 -15.699306 -1.690562
-13.96888 -15.76815 -1.507531
-15.129577 -15.72132 -1.698824
-14.061334 -15.771815 -1.512669
-15.161543 -15.704621 -1.699685
-14.112895 -15.779471 -1.515879
-15.254286 -15.701483 -1.7049969
-14.187081 -15.761752 -1.518748
-15.365096 -15.716469 -1.712569
-14.286528 -15.771835 -1.524686
-15.459541 -15.713857 -1.718051
-14.366188 -15.759352 -1.528196
-15.530377 -15.736654 -1.723729
-14.41005 -15.757352 -1.530444
-15.683501 -15.793118 -1.736462
-14.519289 -15.776685 -1.5375021
-15.759019 -15.769232 -1.739534
-14.591157 -15.754404 -1.540049
-14.723535 -15.812585 -1.420823
-14.795612 -15.789601 -1.4231811
-14.92186 -15.824754 -1.4315031
-14.971559 -15.827469 -1.4341789
-15.249732 -15.855665 -1.983485
-15.499362 -16.06871 -2.0156081
-15.35363 -15.761958 -1.983866
-15.402232 -15.762109 -1.987198
-15.471557 -15.783678 -1.993468
-15.57762 -15.741724 -1.9977601
-15.644425 -15.759885 -2.003638
-15.730789 -15.797818 -2.0122571
13.783104 -18.229179 -1.053562
13.363155 -18.185059 -1.85304
13.740676 -18.293106 -1.055094
13.311217 -18.234896 -1.854051
13.818541 -18.459019 -1.064974
13.257848 -18.221691 -1.850317
13.460883 -18.216084 -1.042907
13.421385 -18.222546 -1.041975
13.515604 -18.474739 -1.056278
13.480228 -18.549417 -1.058575
13.312448 -18.377209 -1.045625
13.630175 -19.011347 -1.084142
13.205348 -18.536192 -1.049605
13.046144 -18.514044 -0.907884
14.159542 -18.309942 -0.79135001
13.740086 -18.175707 -0.77635801
13.776386 -18.345295 -0.783216
13.735044 -18.472553 -0.78671998
13.240654 -18.400127 -1.58942
13.659891 -18.554592 -0.78783101
13.596414 -18.528984 -0.78540403
13.552058 -18.558678 -1.475186
12.987231 -17.655478 -2.1921611
12.957694 -18.15896 -1.42696
12.92759 -17.691097 -2.191618
12.943593 -18.261311 -1.432564
12.898316 -17.709641 -2.1914539
12.840858 -17.748325 -2.1913509
12.793663 -17.801266 -2.1931789
13.218152 -17.947815 -2.0974779
13.190803 -17.970036 -2.0977349
12.976656 -18.215479 -1.296579
13.116662 -18.047894 -2.099942
12.784829 -18.125517 -1.284523
13.114719 -18.16651 -2.1098289
12.94544 -18.110811 -2.09533
12.608223 -18.239601 -1.284453
12.563533 -18.236155 -1.282645
12.979664 -18.130938 -1.964115
12.656717 -18.215548 -1.1044739
2.481436 11.010317 -2.597698
2.570879 11.004283 -2.6009359
2.6822629 11.012149 -2.6088591
2.7704949 10.998829 -2.6106889
2.855705 10.973519 -2.6097059
2.9452651 10.964436 -2.6129389
3.0358989 10.958365 -2.6171091
3.1255319 10.947809 -2.6203411
2.6137869 11.470388 -2.6007521
3.204658 10.901103 -2.6146679
2.7072339 11.465229 -2.6043129
3.237201 10.703219 -2.5710399
2.8012111 11.461204 -2.608325
2.9137189 11.453736 -2.612783
3.0147729 11.474409 -2.6231101
3.1092279 11.467858 -2.6271191
3.1985409 11.441756 -2.6266141
3.2425809 11.257611 -2.5882051
2.740284 11.950803 -2.5992341
2.8403001 11.956039 -2.605252
2.9372599 11.947176 -2.608233
3.052953 11.932743 -2.611207
3.1544769 11.939127 -2.6180899
3.2256811 11.833601 -2.599376
2.9702859 12.502052 -2.6086979
3.0696011 12.484586 -2.609884
3.170732 12.473916 -2.612735
3.250134 12.379147 -2.597266
2.4701259 10.565404 -2.5890839
2.5550389 10.555662 -2.5914531
3.0402291 9.9427481 -2.5739939
2.64697 10.57348 -2.6011059
3.1358311 9.9215775 -2.5759389
2.73791 10.516685 -2.5927811
2.8256609 10.516026 -2.598062
2.9094369 10.499673 -2.5994551
2.999485 10.505042 -2.6066761
3.086518 10.49847 -2.6109819
3.165231 10.463318 -2.6080019
3.2251999 10.368262 -2.5894821
7.6301589 27.179064 -1.311291
7.7541471 26.969809 -1.302181
7.5786352 26.670799 -1.11895
7.6528211 26.772343 -1.124542
7.7119222 26.819948 -1.1274641
7.607482 25.99349 -1.088118
7.6415291 25.958639 -1.086942
7.689065 25.969727 -1.0880539
7.815876 25.948772 -1.08874
7.8589172 25.944244 -1.089089
8.1814814 26.70859 -1.128402
8.6329432 26.397121 -1.120317
8.512372 25.753418 -1.089309
8.5924053 25.859606 -1.095277
8.6462603 25.751291 -1.091112
8.7001381 25.644659 -1.087065
8.7165689 25.561117 -1.083506
8.9288425 25.786247 -1.096855
9.0741987 26.074259 -1.112058
7.5328212 26.498028 -0.94573498
9.3918943 26.452082 -1.133938
7.791616 26.157034 -0.93482602
7.7750702 25.953548 -0.92645103
7.8696451 26.119301 -0.93417299
8.2292366 25.843294 -1.897043
7.977839 26.034445 -0.932006
8.1286182 26.377062 -0.94748402
8.3814106 25.76115 -1.894455
8.0850744 26.091555 -0.93552297
8.413125 25.721563 -1.892259
8.1341887 25.680746 -0.919644
7.3252978 26.455614 -0.77813399
8.5022488 26.26613 -0.94745702
7.7167602 26.725597 -0.791026
7.7474818 26.519196 -0.78415799
7.8425479 26.535114 -0.78561097
7.8603148 26.442413 -0.78257102
8.2218952 26.439688 -0.78597403
8.6052914 25.881918 -1.5819629
8.7001181 25.762094 -1.576363
-8.9102774 42.595028 -0.45767701
-8.8061256 42.760159 -0.459481
-8.7641678 42.893562 -0.461184
-8.6322613 42.928864 -0.46094501
-8.4951372 42.938396 -0.46031201
-8.3175306 43.096016 -0.46162099
-9.0153084 43.015884 1.089234
-8.8688126 42.983429 1.088348
-8.7918396 42.948479 1.087518
-8.6800137 43.083939 1.090099
-9.1299667 42.567451 -0.20236
-8.9908018 42.564911 -0.20169701
-8.6764097 42.717045 -0.201594
-8.4065504 42.751514 -0.20068499
-8.661026 43.162273 1.3513581
-8.4528656 43.169533 1.351015
-8.3548279 43.025951 1.3470089
-8.8805256 42.806618 0.053996
-8.7018051 42.613213 0.055162001
-9.2029934 42.627838 0.31013
-9.2019911 42.943375 0.31103501
-9.087183 42.73502 0.31068301
-8.8922052 42.799171 0.311288
-8.8448343 42.905235 0.311692
-8.7857933 42.956421 0.31196401
-9.1071339 42.340019 0.56446499
-9.083724 42.551888 0.56632102
-9.0266924 42.936584 0.56970501
-8.8608541 42.810192 0.56876802
-8.7979021 42.84182 0.56910002
-8.6661854 42.877357 0.56953299
-8.49547 42.718208 0.56832302
-9.0379696 42.965675 0.82857198
-8.9752674 42.999519 0.82904202
-8.9046812 42.996082 0.82897103
