# .PCD v0.7 - Point Cloud Data file format
VERSION 0.7
FIELDS x y z
SIZE 4 4 4
TYPE F F F
COUNT 1 1 1
WIDTH 1600
HEIGHT 1
VIEWPOINT 0 0 0 1 0 0 0
POINTS 1600
DATA ascii
2.3988841 5.159554 10.275677
2.4438109 4.395225 10.210929
2.274987 6.4006591 10.331836
1.53783 6.838728 10.441322
2.3594739 4.7336402 10.213118
2.2537949 6.2504239 10.261964
2.023787 5.4177132 10.198401
1.542799 6.8108268 10.511228
1.527745 6.7197728 10.396357
2.020879 5.3758788 10.19641
1.920145 6.9397349 10.362485
2.345293 4.619329 10.17265
2.2477829 6.1473489 10.273456
1.914501 6.8660698 10.35633
1.6311851 4.8792272 10.138593
2.6856279 3.216187 8.8725767
2.242471 6.0294552 10.296498
1.4919749 6.2568431 10.253449
2.3871131 3.6934259 10.127462
2.3211181 4.3019261 10.146348
1.491268 6.2194881 10.264977
1.490707 6.1998472 10.268949
0.76427501 5.4340611 10.765607
2.395885 3.6239469 10.19662
0.762546 5.3456979 10.757332
0.76285201 5.3121672 10.776722
0.76219201 5.288116 10.769889
1.447162 6.5817971 10.418934
0.75755298 5.2103438 10.688414
0.75390899 5.1418471 10.626813
1.493751 6.0075688 10.396943
1.4493181 6.5405831 10.465518
0.75181103 5.1054101 10.590341
2.782655 6.8840051 10.335094
1.44405 6.4616151 10.44624
0.74777102 5.0164709 10.526417
1.4836299 5.8938141 10.344017
0.74064499 4.9365358 10.386727
1.48037 5.8623438 10.324413
0.73665899 4.884408 10.311169
2.2784009 3.8882251 10.034868
1.417801 6.2439308 10.257755
1.4178621 6.2271729 10.266993
0.73428202 4.794591 10.28607
0.73433602 4.7777929 10.293033
0.95404398 6.0794969 10.396542
2.2790051 3.8066471 10.064256
0.73837101 4.7598748 10.393353
0.95929903 6.0677919 10.497562
1.473662 5.678936 10.339084
0.740403 4.7595301 10.440953
1.030256 5.467979 10.294479
0.96032399 6.0581279 10.520641
0.74225497 4.7575412 10.484876
1.043173 5.532052 10.471721
0.956168 6.0083771 10.467777
2.266252 3.684978 10.027294
0.739191 4.6793242 10.438859
1.472306 5.5873232 10.366372
0.73861599 4.6570978 10.432651
0.73803997 4.634902 10.4264
0.66904598 5.0283871 10.327905
2.3179989 2.9979501 9.936656
2.6817131 3.1486349 9.2825317
1.450539 5.4282169 10.209047
0.736862 4.5728011 10.418658
1.942324 4.2542648 10.091404
0.73628497 4.5507088 10.412242
0.735322 4.5079851 10.403118
2.316371 2.9141431 9.9476461
0.734258 4.4647169 10.391856
0.73341101 4.4406338 10.37963
0.73334599 4.4052458 10.388783
2.703882 3.7865019 9.6340246
0.73191899 4.359416 10.369636
1.8192 5.4477019 10.28288
0.731493 4.3213062 10.371031
0.73136503 4.30299 10.373498
2.3212731 2.7563391 10.009687
2.186033 4.036448 10.050885
1.80711 5.3579402 10.224484
0.73002797 4.258141 10.355817
0.67428899 4.7636781 10.556041
0.94070798 5.4902291 10.413639
0.73014098 4.2242379 10.368133
0.67893398 4.7727289 10.67735
0.59110701 5.0486741 10.084005
1.021933 4.9695358 10.363006
0.94313103 5.4724908 10.464048
1.8370529 4.8472962 10.115428
0.72911102 4.1991911 10.351637
0.67344999 4.7021651 10.552713
0.596699 5.1007872 10.244621
1.01911 4.936101 10.331729
0.93932402 5.4279518 10.41439
2.318526 2.6708839 10.012964
0.72828299 4.1410351 10.349023
0.680336 4.7140241 10.732841
0.727974 4.1214771 10.347418
0.68242103 4.7156792 10.787973
0.72730398 4.0992861 10.338238
0.68442798 4.7164378 10.841278
2.2341499 3.139396 9.9927692
2.6587951 3.4870751 9.5189638
0.72647399 4.041357 10.335091
0.72616398 4.0218792 10.333309
0.72558302 4.0004749 10.32582
2.2333231 3.055989 10.008685
2.649338 3.3961959 9.5023279
2.6483159 4.0265908 9.7710791
0.72502202 3.944679 10.327834
0.70161402 4.726655 11.295124
1.374518 5.24189 10.238339
0.72453099 3.9240019 10.32209
0.71073699 4.790349 11.518779
0.72376901 3.9014561 10.310622
0.708372 4.749763 11.467756
2.2329011 2.9565189 10.030037
2.1002049 4.279088 10.082329
2.6389019 3.9151349 9.7630663
0.72347701 3.847718 10.317823
0.708556 4.6936769 11.488435
1.462662 4.1597881 10.124331
0.72316599 3.8283851 10.315696
0.70837897 4.672904 11.489609
0.46294901 2.895658 10.925819
0.72240299 3.8059821 10.304032
0.71367699 4.7004361 11.622039
0.63288099 5.1657872 11.368934
0.462865 2.876533 10.923941
2.094125 4.1826711 10.075894
2.635771 3.82986 9.7760162
1.807382 4.384429 10.066218
0.72147697 3.748091 10.297439
0.714957 4.6531539 11.66879
0.631154 5.0884032 11.337847
0.52904898 5.0768771 10.348691
0.46353599 2.8281951 10.959232
1.807156 4.3672528 10.07068
0.721798 3.733084 10.308465
0.71814501 4.6613021 11.750719
0.46501899 2.8244359 11.02756
1.805038 4.328578 10.068526
0.72073102 3.6915381 10.294348
0.72421998 4.6740971 11.907322
1.802631 4.289331 10.06427
0.72073901 3.6573031 10.30286
0.63073301 4.987834 11.354309
1.80073 4.2679882 10.057455
0.72051698 3.6387019 10.302303
0.72080398 3.6061299 10.316488
2.3321309 2.1712639 10.177704
1.499566 3.4759221 10.05207
1.4980429 3.438993 10.04859
1.4936889 3.3292229 10.039066
0.39401799 2.9505789 10.977905
2.070092 3.801136 10.04339
2.8249049 3.1011579 10.385349
1.492156 3.2925761 10.034964
1.78529 3.998512 10.0328
0.394555 2.9211171 11.013265
1.612368 2.4445741 10.124296
0.39301699 2.861968 10.919999
1.782379 3.9420471 10.029348
0.39341101 2.8490369 10.945368
2.1352429 3.1056211 10.009783
2.0630441 3.7046411 10.027045
1.044621 3.4196479 10.178383
2.1378291 3.0270281 10.044488
2.058851 3.614023 10.026763
2.6584101 3.373256 10.022402
1.339555 4.4248672 10.172797
0.70927298 3.1441309 10.157056
1.6076781 2.2714169 10.116937
1.3376451 4.401001 10.160625
0.86106497 2.36097 10.65112
0.70868599 3.123945 10.147897
1.04527 3.354634 10.20326
0.86558402 2.3575771 10.730854
1.273952 2.2022569 10.741084
0.707735 3.1017611 10.130973
2.184175 2.2257841 9.8997946
2.189811 3.0013189 10.364044
0.876858 2.3388619 10.930943
0.70724702 3.0484819 10.130344
1.041428 3.2731171 10.170165
1.62431 2.2106881 10.25672
0.87988698 2.330045 10.985164
0.70738399 3.0324149 10.13649
0.88578701 2.3296421 11.08856
0.70806402 3.019295 10.154227
2.1141779 2.8125501 9.9512491
2.6475229 3.1780429 10.022329
1.331462 4.2272658 10.153515
0.90097201 2.3190939 11.355704
1.149106 2.3264689 10.068244
1.329551 4.203722 10.140921
0.90538198 2.3131759 11.433591
1.1501909 2.312283 10.083053
1.667153 2.1642599 10.598525
1.329996 4.188518 10.150678
1.761903 3.5666111 9.9914932
0.91197401 2.3132451 11.548911
1.15284 2.301451 10.11545
1.430185 3.2347081 10.086941
0.91441798 2.2631481 11.59751
0.91882902 2.2562621 11.675405
2.1022091 2.6333399 9.9174643
0.98015302 3.4635379 10.198028
1.033463 2.9435761 10.134623
2.425606 2.1083691 11.275939
2.098403 2.547049 9.9119492
1.424933 3.0560009 10.081024
0.64957702 3.1266999 10.316431
1.4223861 3.0168991 10.066467
1.849844 2.4672019 9.9450922
2.095602 2.462182 9.9115057
2.815737 3.031862 10.855952
1.4205379 2.9630251 10.061529
1.5972151 2.1601031 10.583345
1.608759 2.1584661 10.678126
1.418918 2.9096661 10.058353
1.029887 2.765017 10.121685
2.562773 3.506357 10.017589
0.654154 2.9304869 10.468057
1.679371 2.107209 11.262792
0.65745699 2.897687 10.557897
1.308587 3.615525 10.097999
0.65876597 2.8878331 10.592977
1.465129 2.3476629 9.9992924
1.30785 3.596607 10.095503
0.66086501 2.8824589 10.647504
1.464332 2.2970009 10.000827
0.67048502 2.884146 10.89304
1.465772 2.28283 10.015564
1.305301 3.522193 10.089097
1.15134 2.2809629 10.90305
1.305154 3.505101 10.092143
0.74591798 2.478178 11.080045
1.148792 2.257798 10.87461
1.302554 3.447412 10.080264
1.16336 2.2335989 11.05853
0.96936101 2.917393 10.160603
1.492303 2.240402 10.251352
1.3028001 3.4314899 10.087001
0.96857899 2.8979471 10.152969
1.3012739 3.41043 10.07655
2.1565609 2.0951581 10.335438
1.499701 2.1837461 10.323712
1.749908 2.2749109 9.7385826
0.966838 2.824985 10.14161
1.432843 2.5365331 10.260188
1.7586991 2.2703359 9.7998266
1.299705 3.3393409 10.078396
0.96743602 2.810221 10.153233
1.43294 2.5028989 10.267068
1.759081 2.2385199 9.8078127
0.70234501 2.8142149 11.715128
0.96698302 2.7751279 10.153201
1.404754 2.418153 10.024494
0.96541703 2.736582 10.13738
1.29641 3.2469721 10.067077
1.1576329 2.5936749 11.870871
0.96587598 2.7213221 10.146931
2.0816431 2.0785551 11.533112
1.3471971 2.813751 10.017599
1.1514339 2.5397029 11.795565
0.96486902 2.684571 10.138816
2.4853899 3.5595241 10.133263
1.151683 2.501677 11.804299
0.964131 2.648824 10.13436
1.143679 2.4442141 11.705053
0.963952 2.6147439 10.137695
1.343879 2.7240601 10.003663
1.726629 2.56529 9.9742298
0.96385902 2.5977399 10.139266
2.492244 3.486094 10.190046
1.412455 2.2607901 10.09328
1.856142 2.153024 10.465777
0.96620297 2.5621729 10.135172
1.727319 2.4962771 9.9708948
0.96602303 2.5281219 10.138226
1.14881 2.3325291 11.740541
0.96578997 2.51073 10.137704
1.440613 2.2226579 10.354396
1.725487 2.4445181 9.9672327
1.135774 2.265893 11.575501
0.96504498 2.475172 10.132661
1.131197 2.2181921 11.520502
0.964863 2.441159 10.135435
1.725064 2.394696 9.973135
1.129885 2.1965771 11.505678
0.96476901 2.42419 10.136726
1.147851 2.176651 11.746782
0.96588099 2.3770101 10.160131
1.3463171 2.4917171 10.042163
1.142311 2.14625 11.676691
0.96814799 2.36641 10.194627
0.97347403 2.3639171 10.272235
1.737576 2.2463169 10.087682
1.550254 2.1004591 11.362494
1.746412 2.207437 10.156965
1.018016 2.250211 10.932747
1.783728 2.1508689 10.431717
1.358374 2.2469831 10.198273
1.822087 2.125493 10.708675
1.364013 2.189018 10.260927
1.283097 2.5265679 10.05129
0.87969601 2.3990309 10.182682
1.282205 2.491523 10.048395
1.738286 1.9813 10.131996
0.882496 2.374121 10.232214
1.7358429 1.945429 10.119393
0.97826397 2.5779459 11.771917
0.97479898 2.5290711 11.721882
0.92165202 2.3358951 10.878362
1.460322 2.125833 11.189962
0.91985297 2.3128209 10.851974
1.281365 2.291019 10.073096
0.92105299 2.2805319 10.875718
1.493912 2.09916 11.5137
1.28443 2.263494 10.108529
1.28883 2.2549961 10.154531
1.8149019 2.0890391 11.172567
1.823823 2.0808151 11.239884
1.838124 2.0783801 11.346384
1.848224 2.0335629 11.426946
1.435943 2.0885501 11.666846
1.022635 6.5425291 5.8486428
1.01421 6.4570332 5.8016691
0.96477199 6.0183458 5.467598
0.92687702 5.6832352 5.2097459
0.331714 6.6041069 5.887145
0.93557 6.218225 5.6124411
0.92561197 6.1261311 5.538075
0.65998602 6.5447102 6.1266189
0.89883202 5.8673782 5.3477588
0.88870001 5.7749691 5.2707658
0.64000499 6.2324982 5.8611808
0.33882001 4.6160612 4.4196472
1.2069319 5.9801059 5.4252348
0.63022399 6.0753698 5.7347689
1.198612 5.9132071 5.3933282
0.62538302 5.9875412 5.6802068
1.187116 5.837647 5.3337941
0.62029201 5.9068761 5.6133881
0.60931599 5.735312 5.4673548
0.60417199 5.6448202 5.4067969
0.59690303 5.535337 5.3066239
0.57928199 5.2569098 5.0738258
0.57467401 5.1851211 5.012135
0.56698298 5.0538759 4.9178562
0.56286699 4.989449 4.862875
0.78514302 4.7273521 4.568018
0.599599 6.610672 5.8994479
0.30127099 4.686934 4.5111728
0.59539998 6.5317879 5.8398442
0.30019501 4.625762 4.4585161
0.76975501 4.5909109 4.4465971
0.59059399 6.4432631 5.7700701
0.30036601 4.6248312 4.472692
-0.03757 6.4371161 5.7527752
1.187212 6.180109 5.5742712
0.77113098 4.5669179 4.4659829
0.30209699 4.6100349 4.5028892
1.181759 6.1374388 5.5493159
0.77167797 4.5632572 4.4770999
0.57897103 6.1824908 5.5821419
0.30179101 4.5864582 4.4916239
1.167827 6.0435982 5.4715528
0.77086103 4.5490389 4.4762511
0.30191201 4.5827708 4.5027909
0.77114302 4.5273418 4.4976411
0.302053 4.5609632 4.5243468
0.77203101 4.5262089 4.511735
0.30206001 4.5519419 4.5294662
0.226496 6.6414261 5.9214749
0.771725 4.5159092 4.5152941
0.30220899 4.5494699 4.542119
0.77269101 4.4992008 4.542592
0.30257899 4.5378909 4.5756621
0.773067 4.4940519 4.5521498
0.84211701 6.2931609 5.6720452
0.30258599 4.528801 4.5807352
0.77382702 4.4836168 4.5713601
0.30266401 4.5131202 4.5939832
1.059988 5.2811909 4.9003258
0.774921 4.4757509 4.5934892
0.30287701 4.5039339 4.6147041
-0.095183 6.5596519 5.9369488
1.187045 6.560451 5.858067
0.77444398 4.4640808 4.595407
0.30288401 4.4947929 4.6197119
1.1771621 6.4760542 5.8130312
0.77298498 4.4368401 4.5946932
0.30304801 4.4828429 4.6374502
1.153147 6.3009691 5.6757669
0.77527398 4.4377441 4.627461
0.78396899 5.6525192 5.1819692
0.30285999 4.4555378 4.6366148
-0.076218002 6.1197252 5.5871391
0.77552199 4.4231768 4.6419559
0.30351099 4.4651842 4.6804409
-0.072563998 6.027019 5.5294318
0.77487397 4.4102139 4.64221
0.30328801 4.4457731 4.6730332
-0.068228997 5.9286871 5.4465079
0.26234201 4.6492958 4.4669619
-0.061507002 5.7730651 5.3215232
0.262348 4.6287551 4.4744792
1.086569 5.8069119 5.3021579
-0.058061 5.6859388 5.2664809
0.262658 4.6318569 4.5090971
1.305145 5.362165 5.0300169
-0.055406999 5.6232438 5.2184758
0.26266101 4.6215391 4.5128212
1.31104 5.3634791 5.082705
-0.052459002 5.5390549 5.182416
0.26262599 4.586575 4.5194421
1.311658 5.3575749 5.0934901
0.024456 4.678761 4.4920878
-0.047263999 5.4247541 5.0785618
0.26291099 4.5984659 4.5488238
1.311987 5.350307 5.1028161
0.026299 4.6273522 4.4495139
-0.043944001 5.349113 5.0151558
0.26291299 4.5881081 4.552474
0.96584302 4.5625501 4.441618
0.026249001 4.6084218 4.4742842
-0.038531002 5.215981 4.9232111
0.263111 4.5712171 4.5801611
0.026285 4.60079 4.4809842
-0.035615999 5.149189 4.8678489
0.26306301 4.5569448 4.5791779
0.967062 4.5538821 4.462357
0.026210999 4.5957751 4.490685
-0.032301001 5.0744419 4.8034849
0.26323301 4.5594821 4.5980091
0.96694499 4.529623 4.4807572
0.025559001 4.5909891 4.5319772
-0.028167 4.968873 4.7374091
0.26321301 4.5256138 4.6056838
0.17521299 6.1293311 5.5255609
0.96904701 4.5336151 4.5009031
0.76624298 6.0036979 5.4489861
0.025486 4.585875 4.5416789
-0.025189999 4.9015222 4.6797261
0.26331499 4.522903 4.618391
0.175825 6.0167532 5.4286542
0.96724498 4.5156078 4.4954
0.75982702 5.9279852 5.3889818
0.025303001 4.583344 4.5544109
-0.023081001 4.8518562 4.6410599
0.26348501 4.525281 4.637249
0.97057301 4.5104599 4.5363522
0.025144 4.5664349 4.582077
-0.017488001 4.7183018 4.5406408
0.263616 4.5027761 4.6585641
0.17717201 5.7692618 5.2452679
0.970608 4.5027242 4.5428939
1.102043 6.3069539 5.6830211
0.025071001 4.5612168 4.5917602
-0.014381 4.6490998 4.4791269
0.26360101 4.4910412 4.6604619
0.967471 4.4692712 4.5347381
1.089411 6.2016678 5.6135321
0.025203999 4.5442071 4.6035752
-0.014168 4.6310682 4.4897671
0.26372999 4.4788971 4.6782308
0.97213501 4.479229 4.5782089
0.02533 4.5272379 4.6152258
-0.013829 4.6104331 4.4972448
0.26395199 4.474318 4.705183
0.97148103 4.467618 4.5801172
0.025420001 4.5181022 4.6202612
-0.011459 4.556406 4.4515481
0.97247702 4.4569788 4.5992908
0.458581 4.6178389 4.4677501
0.025552999 4.5010128 4.6319299
-0.011715 4.5477219 4.472384
0.97392601 4.4488559 4.6214099
0.025242999 4.4941349 4.6557789
-0.011711 4.5337648 4.4870811
0.97262502 4.425498 4.625154
1.255208 5.3315492 5.017765
0.45964 4.6030669 4.5126081
0.021398 4.5693579 4.7803221
-0.012166 4.528852 4.5124149
0.97266102 4.4176211 4.6315608
1.2430871 5.2640748 4.9614248
0.024049001 4.5005932 4.7125878
-0.011531 4.5093861 4.505383
-0.011726 4.4992208 4.5245171
-0.011848 4.4876022 4.5422239
0.45963499 4.552721 4.5481291
0.44522399 6.721396 6.0489502
-0.011613 4.4759722 4.5441661
-0.012075 4.470798 4.5693412
0.69803101 4.4542971 4.6479802
0.43373099 6.3617458 5.7662101
-0.011864 4.452569 4.579339
0.22380801 4.4518919 4.6437302
-0.011895 4.4460521 4.5873222
-0.012248 4.4314418 4.6174831
1.122538 4.572125 4.4171362
-0.012346 4.4261298 4.6269808
1.119254 4.5489049 4.4058971
-0.012177 4.415709 4.6303058
0.97628701 5.6926198 5.216588
1.117431 4.5170999 4.415298
0.460879 4.4636459 4.648767
0.41366899 5.7241321 5.2785149
-0.01233 4.397016 4.6557479
0.96761602 5.6216869 5.1604481
1.121892 4.5302892 4.4458108
0.45992699 4.4391551 4.6352282
-0.011963 4.382782 4.6543608
0.96049398 5.5619702 5.1155901
1.121928 4.5226908 4.4523811
0.411275 5.6400418 5.2259789
-0.012393 4.3836808 4.6715651
0.88684303 4.5796261 4.4273682
1.125914 4.5177732 4.4932051
0.88852501 4.5825438 4.4459872
0.93258601 5.3286791 4.938859
1.128163 4.5203738 4.5118179
0.888767 4.5762539 4.4541378
0.92236102 5.247859 4.869988
1.1279221 4.5113888 4.5168619
0.89011598 4.56112 4.4831638
1.130803 4.5008969 4.5517111
0.89035797 4.5547609 4.4912882
1.1305619 4.491858 4.556716
0.88817102 4.5250959 4.4879818
1.128149 4.4648118 4.5561318
0.39063099 4.989058 4.71731
0.88968402 4.5187821 4.5116959
1.1293271 4.4543071 4.5751538
0.386612 4.866291 4.6154289
0.891985 4.525238 4.5349321
1.130469 4.4515448 4.5877142
0.38556099 4.830111 4.591527
0.892681 4.5135179 4.5527129
1.1319309 4.4420891 4.6083579
0.38273799 4.7391191 4.5228038
0.89542902 4.5145931 4.5855918
1.131448 4.4238758 4.6181159
0.892169 4.4863701 4.5677052
1.130376 4.4110098 4.6183658
0.89142299 4.4656181 4.574677
1.1321141 4.4026389 4.6404729
0.892937 4.4588609 4.598341
0.89301503 4.4430928 4.6113491
0.89305001 4.4352322 4.6177802
0.89456397 4.4282532 4.6414161
0.89299297 4.40236 4.6419368
0.38173699 4.4502301 4.661777
2.4851129 -5.5746732 22.849974
1.604391 -5.9066839 22.445528
1.605296 -5.9823408 22.439243
1.6100219 -6.0396152 22.506174
1.613384 -6.12679 22.539707
2.332607 -5.6744871 22.724459
2.3393919 -5.911664 22.737654
2.298996 -5.9007649 22.265659
2.2949851 -5.9243512 22.211557
2.290621 -5.9467249 22.153595
1.460335 -6.2587872 22.289248
2.4346759 -6.892777 21.894278
2.2967391 -6.0715032 22.188841
0.75664902 -7.0084739 22.113646
1.463744 -6.3122268 22.340185
0.75696099 -7.0476222 22.113411
1.458941 -6.3223739 22.241413
2.440767 -6.9827089 21.931868
0.75708902 -7.0842919 22.105509
1.461062 -6.4400349 22.246061
2.4181089 -7.0123048 21.668329
0.75880998 -7.2126832 22.136566
1.476372 -6.5582271 22.512894
2.4356389 -7.1056151 21.832346
0.75801402 -7.2366948 22.090485
2.428148 -7.1152921 21.745033
0.75550997 -7.2369428 21.974279
0.75625902 -7.3516331 21.964718
0.75596899 -7.382266 21.939304
2.1636579 -5.8805728 22.344027
2.15536 -5.9251308 22.226225
2.152324 -5.9862242 22.169918
0.61581701 -6.8906679 22.191299
2.1571341 -6.0373721 22.215532
2.034642 -5.2562599 22.684088
0.61568302 -6.9231849 22.170317
2.278496 -6.8888712 21.711756
2.0303149 -5.3152852 22.610041
0.61599702 -6.9984779 22.160572
2.272927 -6.938736 21.6283
2.031328 -5.3906212 22.603746
2.269788 -6.9622231 21.582693
2.2615709 -7.0019178 21.470615
2.022294 -5.6848812 22.400349
2.459199 -8.2683649 21.664665
2.0228419 -5.7581658 22.386942
2.0162661 -5.8429761 22.273111
2.018141 -5.8849192 22.286394
2.019253 -5.9242978 22.28998
1.435321 -7.709372 21.276999
1.543226 -8.0501652 20.583654
1.436738 -7.8882599 21.235279
1.891398 -5.382647 22.636717
1.5484149 -8.1158171 20.651939
1.4361351 -7.9180741 21.211042
1.428151 -7.8981981 21.056068
2.3049519 -8.0955391 21.587074
1.885687 -5.7223091 22.458574
2.006325 -6.5480399 21.920244
2.0059481 -6.6165948 21.892736
1.877525 -5.7996759 22.315973
2.019002 -6.737215 22.032434
1.88606 -5.9026499 22.411907
2.0060661 -6.7218161 21.85947
1.880054 -5.9158692 22.319263
2.0072141 -6.7961621 21.850439
1.885635 -6.0082579 22.374428
2.0268309 -6.944087 22.070829
1.884598 -6.0756221 22.33885
2.0055361 -6.9288492 21.782194
1.886237 -6.1532621 22.339649
1.404772 -8.4284582 20.353331
1.9970241 -6.9291878 21.664486
1.992213 -6.9786859 21.580765
1.987249 -7.0271692 21.495176
1.986675 -7.0591078 21.475931
1.0401421 -6.311286 22.367702
1.880082 -6.6248732 22.099077
1.873364 -6.6319308 21.996563
2.0800121 -7.9948721 20.535303
1.871855 -6.660655 21.964554
1.998893 -7.5572019 21.464172
1.869302 -6.7548361 21.895056
1.708376 -6.0469608 22.600513
1.999843 -7.5956659 21.462919
1.039008 -6.5145869 22.265379
1.875398 -6.8159838 21.965536
1.040516 -6.5624328 22.294676
1.888254 -6.9065919 22.127077
1.033247 -6.607224 22.059301
1.997566 -7.7566109 21.369678
1.032312 -6.634294 22.021553
1.994697 -7.7777448 21.321314
1.032493 -6.6707768 22.014309
1.031011 -6.762753 21.937075
1.030144 -6.7900281 21.901052
2.0493369 -8.3054123 21.879879
1.170665 -7.966958 21.475712
1.171711 -8.0443811 21.471882
1.9481061 -8.062314 20.552319
1.1711709 -8.0738287 21.445534
1.026915 -7.1762471 21.66177
1.856226 -7.4913788 21.436892
1.022449 -7.203547 21.514988
1.858692 -7.57163 21.443914
1.023432 -7.2810969 21.51569
0.89768201 -6.6964898 22.20409
0.89772397 -6.7320719 22.19293
0.89367902 -6.795579 22.021923
0.89470601 -6.841126 22.043011
0.89608002 -6.8903918 22.075439
1.031514 -7.6666212 21.613852
0.89539301 -6.9879351 22.014359
0.89531702 -7.0219841 21.998938
1.66277 -7.134367 21.473646
1.030746 -7.7276702 21.565901
0.896227 -7.0665579 22.015768
0.89437699 -7.1510129 21.915977
0.89342999 -7.175385 21.871864
0.89312202 -7.2066312 21.848577
1.0312999 -8.0067177 21.469826
0.88790298 -7.2523961 21.638542
1.030425 -8.0318747 21.432331
0.88834703 -7.291625 21.639746
2.5592141 -7.2524791 21.581282
0.88838601 -7.3263221 21.627647
0.88867301 -7.432343 21.596806
0.893641 -7.523293 21.74481
1.695618 -7.8953571 21.748589
0.889844 -7.6168299 21.566776
0.893246 -7.690701 21.66326
0.89192498 -7.7438178 21.592781
1.708411 -8.1406832 21.871557
0.88799202 -7.765492 21.43762
0.88846803 -7.8391638 21.425119
0.894831 -7.9496112 21.616352
0.89577198 -8.0294724 21.618099
0.89601398 -8.100976 21.597252
2.610883 -8.409708 21.62023
1.737329 -6.9320579 24.502043
1.74077 -6.9874949 24.546089
1.738705 -7.0165992 24.500002
1.7322 -7.1404481 24.344149
-0.281082 -6.4669418 24.86401
-0.28055301 -6.4999528 24.828112
-0.27974099 -6.6095328 24.760799
-0.279286 -6.6432848 24.728577
-0.27901801 -6.679615 24.705948
0.65347302 -6.7865272 24.573219
2.5117819 -6.9227319 24.470774
-0.278247 -6.7888889 24.639788
0.65299499 -6.894464 24.504675
-0.27746001 -6.8173819 24.590014
0.65221798 -6.9203248 24.447104
-0.27719301 -6.853404 24.567137
0.65192002 -6.953835 24.416397
-0.276241 -6.9589829 24.490627
0.65143698 -7.060761 24.347143
-0.276308 -6.9998159 24.484825
0.65148002 -7.0996938 24.335419
-0.2757 -7.0702262 24.434778
0.65119201 -7.1712308 24.290838
-0.27472401 -7.134614 24.365257
0.65069401 -7.239007 24.234459
-0.274533 -7.1712718 24.345758
0.65025699 -7.2695718 24.195683
1.57787 -7.5704718 24.203522
-0.274075 -7.2433591 24.302889
0.65017098 -7.3440518 24.162081
1.57795 -7.6478782 24.178402
-0.27280599 -7.3022771 24.217638
0.65032202 -7.4225121 24.141497
1.576344 -7.7153921 24.122765
-0.27224001 -7.3720632 24.168665
1.57691 -7.7570801 24.119501
-0.27186501 -7.4053478 24.139275
-0.27115399 -7.472301 24.082268
-0.27118301 -7.5511942 24.063301
-0.271586 -7.5970082 24.073656
0.65232402 -7.7614112 24.134823
-0.27391201 -7.7140818 24.172098
-0.27353501 -7.7864509 24.131454
-0.271979 -7.7993832 24.040724
-0.270679 -7.8944168 23.941328
-0.270529 -7.9307971 23.922609
-0.26997399 -7.9600902 23.882999
-0.26919499 -8.0629997 23.809484
-0.26897299 -8.0978231 23.786736
-0.268381 -8.1260386 23.745045
-0.268087 -8.2366695 23.695358
-0.26753399 -8.265233 23.655397
-0.26686999 -8.2916813 23.609755
-0.26587701 -8.3886938 23.523581
-0.26414299 -8.394949 23.423304
-0.26381299 -8.4269476 23.394453
2.2000501 -7.0531459 24.415773
-0.26334199 -8.5323086 23.334026
2.198874 -7.0876689 24.388756
-0.26279101 -8.5598917 23.293751
2.197135 -7.1588702 24.342335
-0.262467 -8.6295671 23.252544
1.273505 -6.892024 24.539278
2.1931031 -7.2211099 24.26697
-0.26192099 -8.6947556 23.199799
1.271512 -6.9174242 24.479811
-0.26126099 -8.7197866 23.153736
1.2716891 -6.9963341 24.458771
-0.26090199 -8.7882023 23.110203
1.26868 -7.0530491 24.362617
-0.260544 -8.8563709 23.066349
1.269297 -7.0960002 24.364307
-0.26021701 -8.8874807 23.036898
1.2689 -7.1705379 24.329304
-0.25978699 -8.953948 22.989159
-0.25917199 -9.0164528 22.931822
-0.258744 -9.0824738 22.883724
2.0542171 -6.8437481 24.617613
-0.25849301 -9.1146269 22.857691
-0.257734 -9.1734905 22.792526
-0.25767699 -9.2465134 22.762497
-0.25727901 -9.2753439 22.728844
1.115746 -6.8002882 24.48597
0.18901201 -7.162631 24.250559
0.18907399 -7.1944189 24.215714
1.119359 -6.9844141 24.534416
0.189125 -7.2308078 24.196123
1.114802 -6.9863982 24.396254
-0.41249201 -8.5967178 23.20306
0.18928801 -7.3356118 24.123789
1.1135499 -7.0920072 24.32304
-0.41151199 -8.6952667 23.126968
0.189307 -7.384974 24.145977
-0.41142899 -8.7315693 23.110806
0.189291 -7.4500632 24.217665
-0.41085899 -8.7606392 23.075937
0.18938801 -7.5827632 24.231993
-0.409785 -8.8568668 22.995449
0.18948101 -7.5994411 24.150911
1.842519 -6.8500218 24.599026
-0.409558 -8.8907509 22.973457
0.18953 -7.6356091 24.130724
1.8399481 -6.8778372 24.547319
-0.40898901 -8.919445 22.9384
1.839473 -6.992856 24.503317
-0.40816301 -9.0184517 22.86656
1.836776 -7.0197072 24.449541
-0.40788701 -9.0513287 22.842482
1.8381211 -7.103652 24.445389
-0.40782601 -9.1245136 22.812832
1.833349 -7.159492 24.347151
0.95934099 -7.2455978 24.264935
0.19064499 -8.254056 23.449232
0.190686 -8.2902317 23.431862
0.19082899 -8.3869305 23.347614
0.19086801 -8.4236126 23.331921
0.190918 -8.4540262 23.299288
0.19104899 -8.5539751 23.225628
0.191093 -8.5869265 23.200319
0.191135 -8.6205273 23.176836
0.19126301 -8.7196493 23.102486
0.19130699 -8.7515984 23.075085
0.191351 -8.7834845 23.047642
0.19147 -8.884676 22.980064
0.191515 -8.9148607 22.948723
0.19156501 -8.9420204 22.909908
0.191678 -9.0438671 22.845371
0.191698 -9.0879459 22.849066
2.0614829 2.447422 2.86812
1.8695641 2.158869 3.0888901
1.869669 2.131315 3.1030591
1.9279881 1.5441099 2.7918489
1.818038 1.846195 3.0886619
1.818135 1.818626 3.100348
1.877178 1.246374 3.2328861
1.818729 1.64557 3.167985
1.818823 1.617355 3.1780789
1.818916 1.589059 3.187948
1.852654 1.348251 3.2444749
1.819102 1.53223 3.207005
1.916162 1.8273849 2.9272921
1.85498 1.320886 3.257592
1.819194 1.5036989 3.2161961
1.913874 1.798763 2.9337959
1.852082 1.2900701 3.257946
1.9155591 1.773851 2.948446
1.907726 1.734657 2.9449799
1.907025 1.707449 2.954071
1.908708 1.682291 2.968024
1.863439 1.385573 3.3676209
2.0416751 0.52095002 4.3387089
1.835215 0.449411 3.142957
1.846205 0.42210099 3.1693771
1.861788 0.90560699 2.894043
1.9843301 1.2131439 4.5299072
1.994511 1.179599 4.5663929
1.910556 0.87151903 3.0066431
1.910702 0.81749302 3.0143509
1.8286591 0.45589301 3.216466
1.8626699 0.769454 2.9142449
2.00614 1.018775 4.621336
1.85013 0.42948201 3.2688489
1.86274 0.743177 2.9173999
1.662101 0.35205701 3.3973191
2.233232 0.43302 4.194643
1.501192 0.41743699 3.6354151
1.670808 0.32233801 3.4217
1.477778 0.672602 3.680866
2.039798 0.531681 3.2348001
1.863011 0.63781703 2.927927
1.4877599 0.61037201 3.7198989
1.89368 1.086321 3.103739
1.491659 0.57858598 3.7352149
1.871981 0.53731501 3.4141619
1.903846 0.154217 4.077384
1.489553 0.54544699 3.729151
1.466414 0.75093597 3.7790461
1.7920229 0.49768701 3.2172101
1.936289 0.68237603 4.4411578
1.904665 0.076158002 4.075181
1.479346 0.47214901 3.695358
1.9338779 0.63578302 4.4365282
1.8609869 0.43966001 3.389755
1.698338 -0.079054996 4.1318469
1.934599 0.59764397 4.4404569
1.824402 0.407603 3.2994139
1.834306 0.017074 3.870605
1.4865921 0.407794 3.7216649
1.83201 0.56872398 3.412394
1.49158 0.37537199 3.7392421
1.460579 0.86343998 3.899682
2.189019 0.56324202 4.3219719
1.463737 0.830715 3.9150431
1.490702 0.27707899 3.734643
1.4510421 0.79137301 3.8705599
1.832297 0.44774401 3.4170871
1.494596 0.24407101 3.7473381
1.8399529 0.146485 4.020628
1.452152 0.75792497 3.8776741
1.7877671 0.40733701 3.304354
1.836798 0.104885 4.009058
1.449188 0.71615398 3.869777
2.1939449 1.0092959 4.5612712
1.4462039 0.68137801 3.860884
1.82312 0.211182 4.1061778
1.445349 0.61357898 3.861546
2.1186731 0.293062 4.1453309
1.443385 0.57935703 3.8556819
1.832106 0.13902 4.1298151
1.441421 0.54523998 3.849544
1.465035 0.206403 3.785074
1.7999851 0.106763 4.0312052
1.447641 0.51254398 3.8740389
1.8776309 0.53748602 3.132972
2.0401521 -0.096368998 3.8076451
1.869743 0.50257897 3.116241
1.870608 0.47473499 3.1190569
1.576457 0.047146998 4.1822672
1.453092 0.37032399 3.89608
1.57653 0.010844 4.1796441
1.829982 0.20304 4.2648969
1.562381 -0.057909999 4.1215959
1.8660901 0.36254901 3.109776
1.715098 0.40523401 3.313421
1.714469 0.375678 3.311748
1.473086 0.121609 3.9629951
1.574316 0.240703 3.5967741
1.479887 0.050834998 3.983711
1.723673 -0.069628999 3.914989
1.751338 0.12686899 4.157383
1.979058 0.071153998 4.0103312
1.91636 0.0048890002 3.836288
1.487404 0.044640999 5.8316889
1.477054 -0.001688 5.7741079
1.472296 -0.048893999 5.7456088
1.446257 -0.28688499 5.5851722
1.975757 -0.416127 5.0107989
1.42024 -0.558487 5.4087429
1.718639 -0.711586 5.2241888
1.89862 -0.315366 4.942893
1.719182 -0.75638998 5.2174978
1.891364 -0.35472101 4.9126329
1.717334 -0.79926598 5.2009258
1.904718 -0.63764298 4.7351341
1.8857991 -0.39435899 4.8877988
1.713573 -0.84038299 5.1764202
1.9041981 -0.67789501 4.7252421
1.884177 -0.435424 4.8759861
1.708375 -0.87996399 5.1459179
1.68803 -0.622051 5.3430419
1.883683 -0.47688499 4.86765
1.701264 -0.91744798 5.1075549
1.669675 -0.65496302 5.258285
1.880931 -0.51714098 4.8514009
1.872296 -0.179288 5.0500002
1.65961 -0.69249701 5.207911
1.355981 -0.25039601 5.7201381
1.8751251 -0.232054 5.0543041
1.657388 -0.74402499 5.1882262
1.346965 -0.303036 5.6612382
1.860779 -0.59717101 4.7673459
1.857167 -0.2683 4.9863448
1.348065 -0.35158801 5.6617012
1.16366 -0.22626901 5.877717
1.16632 -0.237611 5.8945098
1.165184 -0.25689301 5.8847761
1.343757 -0.396469 5.630456
1.6259741 -0.226502 5.6219339
1.165513 -0.27690199 5.8847241
1.164064 -0.28594801 5.873837
1.860904 -0.67888701 4.751605
1.341475 -0.442395 5.6106138
1.645739 -0.51934999 5.416882
1.167128 -0.35735199 5.8860741
1.357949 -0.83640599 5.3149981
1.333445 -0.48358199 5.5572138
1.641826 -0.56270403 5.3924098
1.353034 -0.87616801 5.278379
1.33285 -0.53011602 5.5464721
1.349896 -0.91744202 5.251121
1.328872 -0.57359499 5.5158749
1.874557 -0.53265399 5.0094161
1.347824 -0.95961899 5.2293358
1.324893 -0.61665201 5.484962
1.871909 -0.58249903 4.9913092
1.854899 -0.320833 5.1639242
1.351457 -1.017439 5.2358851
1.321942 -0.66959298 5.458046
1.861861 -0.367715 5.1832662
1.317283 -0.71111 5.4225621
1.8539979 -0.40839699 5.1486139
1.311946 -0.75142199 5.382916
1.85937 -0.45480701 5.161479
1.309312 -0.79416901 5.358479
1.5531271 -0.266875 5.5402479
1.5487289 -0.00026 5.8265719
1.309382 -0.83971298 5.3491879
1.546685 -0.310525 5.5039392
1.542973 -0.047977 5.7941141
1.3030241 -0.87751102 5.3028779
1.543506 -0.355445 5.4828749
1.300386 -0.91926998 5.2775202
1.537876 -0.39863899 5.449811
1.870181 -0.87821603 4.9233999
1.293686 -0.95550001 5.228786
1.533061 -0.44187099 5.4203162
1.721513 -0.58981299 4.6286502
1.301192 -1.009918 5.2604451
1.530303 -0.49529099 5.398941
1.768199 -0.66777903 4.78651
1.303298 -1.066516 5.2587881
1.524259 -0.53685898 5.3629308
1.528576 -0.67688698 5.3592672
1.67195 -0.56568301 4.631114
1.695091 -0.62952602 4.7076759
1.508124 -0.89225602 5.2141418
1.50901 -0.93757701 5.2078638
1.589582 -0.43680999 4.5224881
1.889971 -0.53384 4.5214882
2.202574 -0.728908 4.4956112
1.467752 -0.0080399998 12.862678
1.762675 0.098063 12.637204
1.305649 -0.158425 12.828657
1.758152 0.016827 12.595608
1.7669719 -0.41682899 12.644679
2.1805179 -0.16723999 12.755042
1.769825 -0.438757 12.667212
2.167356 -0.184843 12.665199
1.771543 -0.48076099 12.678464
1.217731 -0.20796899 12.717691
1.776551 -0.52470899 12.717443
1.767673 -0.54038203 12.640701
1.7638021 -0.599666 12.602666
1.766654 -0.62186599 12.624888
1.683636 -0.181465 12.624454
1.682869 -0.24274901 12.613843
1.681794 -0.26283401 12.602925
2.147079 -0.46498901 12.509766
1.681165 -0.283057 12.595947
2.143302 -0.48381701 12.482752
2.4147301 -0.19967601 12.629834
1.679951 -0.34395799 12.580892
2.1469409 -0.54625797 12.502352
1.681994 -0.36527801 12.597611
2.1455109 -0.56593901 12.491014
1.683369 -0.38635099 12.608339
2.1646249 -0.59478003 12.617824
1.687054 -0.44963601 12.636459
2.0847991 -0.108172 12.651514
1.6944439 -0.47389701 12.700628
1.613947 0.052349001 12.724275
2.0994821 -0.13231499 12.753636
1.696264 -0.49545801 12.715147
1.607453 0.033066001 12.66211
2.0800929 -0.14806101 12.616283
1.701731 -0.56050098 12.758605
1.606738 -0.028503001 12.652502
2.0782461 -0.209068 12.599921
1.693526 -0.57646602 12.68373
1.607834 -0.049346 12.661788
2.079694 -0.229967 12.608873
1.693161 -0.61747903 12.676813
1.610029 -0.091196001 12.680373
2.0803421 -0.271202 12.610965
1.601676 -0.12960801 12.59933
2.0849271 -0.31373999 12.640502
1.600662 -0.149718 12.58858
2.091444 -0.33658299 12.684882
1.600114 -0.190466 12.581009
2.0791349 -0.37320101 12.595684
1.598507 -0.230673 12.563262
2.073298 -0.41177899 12.551741
1.599224 -0.271855 12.567358
2.0716901 -0.451942 12.537446
1.59842 -0.29190001 12.558374
2.0694749 -0.47134799 12.520314
2.07096 -0.51269197 12.527457
1.599848 -0.37424901 12.565935
2.0783651 -0.55698198 12.576065
1.6041059 -0.39687899 12.604452
2.0984061 -0.587174 12.714824
1.61642 -0.44460499 12.717105
1.616925 -0.48624301 12.718535
2.102226 -0.67181802 12.734267
1.027324 -0.203144 12.645013
1.616964 -0.50690699 12.71716
1.024016 -0.22162899 12.590228
1.613076 -0.56638497 12.67525
1.9984241 -0.32575199 12.590592
1.023397 -0.28255799 12.575404
1.613748 -0.58739603 12.679701
1.999004 -0.34640601 12.593426
1.0245529 -0.303794 12.592299
1.6169519 -0.61012203 12.707923
1.998773 -0.36677799 12.59029
1.025213 -0.324716 12.601182
1.994578 -0.42652699 12.555076
1.991379 -0.44561499 12.530049
2.1158941 -0.90805697 12.807003
1.990338 -0.46553299 12.520822
1.990999 -0.52691299 12.520758
1.992927 -0.54815 12.533161
1.9994431 -0.57161802 12.579146
1.999563 -0.63303 12.574624
2.0012209 -0.65431899 12.584875
1.5294631 -0.45172501 12.642091
1.531179 -0.51439202 12.654033
-0.259931 14.769713 28.028543
-0.25635901 14.58035 27.875616
-0.25358501 14.455152 27.737104
-0.248068 14.168553 27.493498
-0.245067 14.037879 27.339495
-0.242796 13.929806 27.230001
-0.23858 13.686534 27.061848
-0.23646 13.584082 26.960398
-0.23454501 13.488065 26.871302
0.855241 12.449193 27.478327
0.48197299 13.390164 26.35955
0.48290399 13.385699 26.45735
0.483908 13.284876 26.572683
0.48443601 13.260604 26.630859
0.48489001 13.23274 26.681805
0.48591501 13.131282 26.798428
0.48635101 13.102113 26.847448
0.48689899 13.077896 26.907318
0.48796099 12.97661 27.027042
0.48839799 12.946852 27.075926
0.48883599 12.916972 27.124784
0.48993701 12.815835 27.247606
0.490412 12.787142 27.299988
0.49111301 12.717076 27.37739
0.49197099 12.654793 27.472813
0.49250299 12.627905 27.530548
0.493 12.548011 27.58742
0.494158 12.497331 27.71187
0.49430099 12.401768 27.733459
0.49461001 12.364617 27.768909
0.49584401 12.315808 27.900438
0.126367 13.153309 26.650848
-0.069343999 14.734103 27.584723
0.126609 13.059499 26.783443
-0.06684 14.497382 27.447466
0.12671401 13.022682 26.816063
-0.065534003 14.39377 27.352001
0.12690499 12.956328 26.897598
-0.064257003 14.25777 27.299677
0.12693501 12.910487 27.02433
-0.061145999 14.026493 27.055319
0.127009 12.878175 27.067677
-0.060107999 13.937812 26.985495
0.127276 12.799151 27.1234
0.127333 12.747818 27.240824
0.12759501 12.668959 27.298008
-0.055199001 13.479241 26.702593
0.127602 12.646495 27.364861
-0.054133002 13.390375 26.627813
0.12772 12.584929 27.461939
-0.052717 13.249 26.551508
0.127941 12.511625 27.533339
-0.052574001 13.172786 26.610048
0.127938 12.490009 27.603777
-0.052863002 13.151791 26.675312
0.12821899 12.384571 27.723276
-0.052905001 13.048599 26.787935
0.128104 12.379597 27.834124
-0.053055 13.020262 26.838646
-0.053204998 12.991797 26.889332
-0.053350002 12.8922 27.012287
-0.053447999 12.860768 27.057407
-0.0537 12.836697 27.118874
-0.053757001 12.731408 27.232206
-0.054060001 12.709254 27.299061
-0.054053001 12.672235 27.333046
-0.054297 12.574385 27.465921
-0.054565001 12.549882 27.529032
-0.054678001 12.517997 27.575642
-0.054832999 12.414446 27.698868
-0.054945 12.38212 27.745338
1.034843 12.472234 27.512524
1.043816 12.371869 27.88637
1.0432121 12.269567 27.892792
2.211587 5.9993682 5.00631
2.3437059 5.2046928 4.2743821
2.176559 5.7234092 5.0769191
2.1861989 5.7074089 5.1470652
2.3350921 5.0643139 4.3739839
2.6223021 5.0996571 4.1381059
2.1949451 5.6790762 5.2229929
2.5872331 4.9188328 4.17802
2.2816761 5.1935492 4.307951
2.5874059 4.8828068 4.213974
2.6122291 5.3471279 4.119494
2.590389 4.8151689 4.2904329
2.1767991 5.3565178 5.408916
2.1975639 5.3365202 4.0657129
2.270731 5.0075812 4.4373379
2.5566499 4.6293182 4.329823
2.125953 5.0743818 5.370163
2.0686059 5.4134421 5.1631279
2.179786 5.175108 4.145555
2.0510719 5.3184361 5.1468339
2.3845041 5.1591539 4.83076
2.179966 5.1393118 4.1835141
2.054451 5.283885 5.1960292
2.485775 5.1931472 4.0248661
2.3926899 5.0945649 4.9259429
2.4722021 5.1273851 4.0348158
2.3990159 5.06671 4.9789782
2.1896911 5.0532918 4.318799
2.4742551 5.0966301 4.0762572
2.4003201 5.0268888 5.0189271
2.2082469 5.0620708 4.4024229
2.481935 5.0779729 4.1291981
2.4050429 4.9819808 5.0704732
2.7053001 4.621016 4.8874049
2.2651269 5.1532121 4.5883322
2.4705541 4.97053 4.1829772
2.264986 5.073019 4.6621108
2.2233 5.3667011 4.5138268
2.465301 4.8859582 4.2432261
2.6847479 4.6037521 3.871691
2.684926 4.5700788 3.905129
2.3199301 5.0389152 4.953228
2.16996 5.1096501 4.4899721
2.324466 5.0068188 5.0016999
2.3317561 4.9718499 5.0647082
2.252351 5.191752 4.8277669
2.4305129 6.221076 5.1465769
2.4545741 5.0974898 4.2746
2.2600999 5.1272621 4.9234428
2.3513401 5.1729269 4.026721
2.262403 5.0904622 4.9666939
2.263133 5.0494351 5.0053582
2.3611989 5.1251521 4.1230688
1.835762 5.3369732 5.1044068
2.6181431 4.3947072 5.2458582
2.53771 5.169333 4.8702221
2.536989 5.0748239 4.9502082
2.2157459 4.9312892 5.2117801
2.5336411 5.0250182 4.978672
2.2108791 4.8748899 5.232635
2.5421419 5.000113 5.035521
2.215651 4.8412671 5.2817621
2.125154 5.0689521 4.9932761
2.5435331 4.9596982 5.0748882
2.2173791 4.8000121 5.3215499
2.1287899 5.035327 5.040503
2.55322 4.936173 5.1344099
2.5546119 4.8949299 5.173305
2.5554099 4.852149 5.2104111
2.56095 4.8186269 5.2591028
2.5659449 4.7743802 5.3131771
1.753643 2.5179391 15.877998
1.653668 2.465523 15.872115
1.66065 2.3986621 15.958999
1.663497 2.376986 15.993793
1.668434 2.358212 16.052279
1.8889199 1.362704 17.349031
1.891853 1.308447 17.382006
1.8954639 1.282511 17.42124
1.726604 1.81432 16.699806
1.7241091 1.757858 16.674606
1.736769 1.743205 16.819698
1.762535 1.519522 17.123814
2.415204 1.417256 17.253021
2.066792 2.421694 15.980575
2.1110439 2.2611451 16.394146
2.5613689 0.27657399 17.563496
1.684498 1.277378 17.469255
2.583493 2.280478 16.095055
2.6321559 2.294199 16.438295
2.1472931 1.812511 16.754097
2.145577 1.7841229 16.740499
2.6883309 2.2312779 16.841827
2.344635 1.173337 17.572973
2.3525541 1.091188 17.642153
2.360342 1.065472 17.708752
2.362745 1.037755 17.729664
2.3716011 0.95463097 17.806154
2.1952579 1.573386 17.19705
2.7003679 1.912326 16.953003
2.20755 1.35805 17.316116
2.68467 1.766289 16.852184
2.0432341 1.917064 16.748522
2.037395 1.804065 16.700529
2.039001 1.751317 16.718927
2.7329459 1.461558 17.209522
2.2604599 0.98545098 17.798548
2.264524 0.95814902 17.835238
2.7694149 1.393517 17.469543
1.59619 0.69347 17.72629
2.2711661 0.87386501 17.895512
2.7687681 1.308732 17.468327
2.5664589 1.70198 16.763803
2.223268 0.69098198 17.468323
2.2204349 0.66229898 17.442965
2.2340839 0.52346301 17.564024
2.615849 1.455532 17.140636
2.1344609 1.115105 17.646534
2.1389451 1.088454 17.689405
2.685473 1.432932 17.6542
2.1454561 1.005188 17.7523
2.14973 0.978037 17.793018
1.972744 1.591323 17.103994
2.153863 0.92192602 17.832703
1.980949 1.486481 17.190819
1.980217 1.4582601 17.184599
2.1046841 0.57090998 17.368649
2.0387371 1.010244 17.782333
2.717067 0.69797403 17.902796
2.040921 0.92501903 17.805111
2.0407839 0.89629602 17.803961
2.6491139 0.57428402 17.403236
2.646477 0.54595703 17.383707
2.6431561 0.46162799 17.358648
2.6442931 0.43373999 17.366682
2.6451609 0.40581301 17.372692
2.6491179 0.32187301 17.400476
0.98612702 -25.412352 20.940519
0.98888803 -25.539837 20.977789
0.97819299 -25.22061 20.645241
0.97740901 -25.301348 20.509134
0.97733903 -25.334274 20.468714
0.97717798 -25.400007 20.38785
0.977036 -25.465418 20.306646
0.97756702 -25.518293 20.282248
-0.207311 -25.962746 19.650837
0.78437197 -25.719463 20.377584
0.777165 -25.536669 19.964592
0.78068399 -25.839437 19.93807
0.77881801 -25.789492 19.832836
0.78071898 -25.948057 19.824047
0.58757102 -25.325497 20.92989
-0.40960899 -26.059996 20.007113
0.78270698 -26.109926 19.816772
0.58607501 -25.300249 20.772322
-0.40872699 -26.051065 19.933619
0.78190798 -26.108461 19.749508
0.583556 -25.167118 20.594297
0.78363103 -26.25939 19.732904
0.58313102 -25.214706 20.498718
-0.405586 -26.029625 19.652725
0.783306 -26.314779 19.64296
-0.407612 -26.145428 19.675495
0.78371102 -26.36869 19.617817
-0.407011 -26.175209 19.566702
0.78050703 -26.291 19.42808
-0.40690601 -26.226856 19.474642
-0.40696901 -26.284657 19.387381
-0.40594101 -26.26775 19.309528
1.776117 -26.132294 19.807947
-0.80637997 -26.123949 19.829157
0.386742 -26.299255 19.68594
-0.80987602 -26.274984 19.812634
0.386787 -26.394466 19.626131
1.3706909 -25.00362 20.71417
-0.80625498 -26.209866 19.69672
0.38628301 -26.362093 19.535887
-0.80416101 -26.214157 19.568293
0.38705501 -26.562599 19.554634
1.5772229 -26.166321 19.738625
-0.80681401 -26.342539 19.533964
0.38685 -26.620659 19.466322
1.371901 -25.203339 20.54191
-0.802405 -26.255619 19.403109
0.38464299 -26.332069 19.187027
1.366016 -25.245071 20.240721
0.189043 -25.89085 20.015411
0.188999 -25.885151 19.944553
0.18872599 -26.04451 19.869371
0.18864501 -26.09071 19.838753
0.188595 -26.09244 19.773962
0.18830501 -26.265713 19.708191
0.188233 -26.295797 19.665041
0.188216 -26.247576 19.56283
1.379858 -26.164007 19.769518
1.376142 -26.113123 19.664734
1.180029 -26.075943 19.78364
1.178283 -26.12991 19.627146
1.181486 -26.318592 19.572998
1.178386 -26.267015 19.468447
1.179188 -26.322315 19.444492
0.74119002 0.878142 23.13851
0.73891801 0.838835 23.035336
-0.10546 1.260078 23.291735
0.747114 0.80936003 23.395882
0.73759902 0.69022501 22.965979
-0.094435997 1.083809 22.479525
-0.095225997 1.049925 22.546587
-0.104616 0.961465 23.285337
-0.103568 0.848297 23.226015
-0.096968003 0.764561 22.733547
-0.093526997 0.72366202 22.476206
-0.095590003 0.65410697 22.647297
-0.103506 0.58858502 23.265995
0.59517699 1.077196 22.841
-0.104442 0.51478201 23.350679
0.59537297 1.0040981 22.845226
-0.103899 0.477202 23.314886
0.592659 0.96251702 22.678295
-0.107113 0.403503 23.573093
-0.107397 0.328062 23.607201
0.606987 0.83722901 23.525335
0.60460401 0.79633898 23.378099
0.60568601 0.72261298 23.435308
0.60677302 0.42278299 23.466093
0.60437399 0.30986401 23.308214
0.60371399 0.27257699 23.264099
0.46199501 1.183556 23.402908
0.603387 0.23539799 23.239922
0.46175399 1.145089 23.37418
0.46455801 1.039993 23.617573
0.46412501 1.000869 23.57062
0.461665 0.95683903 23.333679
0.461941 0.80738598 23.333015
0.46430701 0.73621398 23.540344
0.45877299 0.65344203 23.00946
0.46096501 0.61909598 23.207851
0.46427199 0.54751903 23.5026
0.46406999 0.434562 23.463171
0.463202 0.35929701 23.367373
0.46330801 0.28454599 23.36322
1.152521 1.349697 22.904648
1.148491 0.86955702 22.794226
-0.51274198 0.45524001 22.744055
-0.524903 0.421316 23.139963
-0.51428902 0.30967799 22.804216
-0.52057803 0.27317801 23.009995
-0.54051399 0.235323 23.657503
-0.53762102 0.122305 23.570757
0.178045 0.93987799 23.034502
0.17818099 0.86668998 23.062277
1.029976 1.144558 23.391479
0.178161 0.79573399 23.207687
1.031442 1.070887 23.431744
1.030148 1.032216 23.392853
0.178813 0.67916799 22.871572
1.0328619 0.95924598 23.468845
0.178838 0.607225 22.978415
0.17869 0.53592497 23.241138
0.17884 0.49829099 23.179369
1.883603 10.93287 14.275023
1.8880219 10.865881 14.377063
2.534137 10.90809 14.229435
1.895054 10.621432 14.62571
1.780708 10.862346 14.41029
2.378562 10.550056 14.019459
2.372318 10.451015 14.023716
2.369503 10.414639 14.020094
2.367172 10.380579 14.019644
2.3659451 10.259081 14.08669
2.3664751 10.191764 14.134996
2.37044 10.186796 14.176706
1.8027329 10.472115 14.957946
2.3713651 10.144225 14.212594
1.807912 10.455591 15.038023
1.810328 10.421255 15.091379
1.812308 10.408903 15.12554
1.810284 10.345918 15.135459
1.808579 10.28521 15.148364
1.8091871 10.264009 15.168991
1.811108 10.225701 15.216984
1.809405 10.164871 15.229433
1.80549 10.090198 15.219831
1.808157 10.081527 15.260447
2.985759 10.318667 14.704291
3.0021131 10.353678 14.809087
2.9967849 10.310234 14.795039
2.9946711 10.229814 14.828663
2.7974019 10.405386 14.019983
2.995065 10.206952 14.845828
2.789108 10.349792 13.988762
3.00088 10.203362 14.892858
2.7891979 10.327175 14.004457
2.163229 10.565514 14.003459
2.7906449 10.263605 14.057943
2.1633201 10.542877 14.019494
2.8005681 10.27905 14.128912
2.182193 10.619194 14.1749
2.798635 10.248371 14.133075
2.8023951 10.193044 14.199312
2.1821439 10.525061 14.236003
2.7914939 10.127921 14.152498
2.794476 10.116118 14.184245
2.8048911 10.08568 14.287809
2.8133709 10.094403 14.350854
2.6889949 10.149567 14.181301
2.5860641 10.446571 14.029096
2.580049 10.397676 14.007633
2.576158 10.357969 13.999042
2.570344 10.263933 14.008679
2.5691071 10.235645 14.01608
2.5718541 10.224222 14.047917
2.5718789 10.154815 14.092751
2.571173 10.128687 14.103215
2.5716391 10.084093 14.135611
2.5792589 10.069261 14.212226
2.5851941 10.070508 14.263739
2.5944281 10.061557 14.35047
1.929162 -5.1251559 18.134268
1.927608 -5.1493082 18.108377
1.925945 -5.2310729 18.063107
1.922341 -5.3061929 17.996502
2.107795 -6.4818158 18.370047
2.8345129 -6.2445102 18.467512
1.822214 -5.0570531 18.270845
2.2111371 -7.101769 19.303698
2.218154 -7.1899972 19.349064
1.411263 -6.6831918 18.711353
1.968141 -6.2803311 18.208359
2.5949171 -5.8738608 17.590231
1.958117 -6.2718449 18.090775
2.018748 -6.649745 18.680593
2.0261829 -6.7083702 18.748154
1.288931 -7.0511999 18.554892
1.2966551 -7.1336589 18.679153
1.295439 -7.18506 18.633223
2.538733 -5.8455181 18.127804
1.898295 -6.6470861 18.701429
2.541889 -6.1737409 18.040104
1.904606 -6.733427 18.750435
2.5518031 -6.2305708 18.108419
1.918951 -6.8236761 18.901884
1.960043 -7.1201258 19.320753
1.965338 -7.1737499 19.368586
2.4290209 -5.7757602 18.230522
1.2131 -7.2061229 19.543943
2.290971 -5.2936101 18.194075
1.770931 -6.6155982 18.638514
1.787362 -6.7789159 18.805763
1.048642 -6.7087412 18.767555
2.558594 -6.9307451 19.037455
2.574975 -7.0427451 19.150393
1.048462 -6.8567491 18.703835
2.185755 -5.2326288 18.337894
2.1752369 -5.261724 18.219128
1.610742 -6.2929721 18.174637
2.18294 -5.3715081 18.264668
2.1628261 -5.3717008 18.054342
2.1566651 -5.3826718 17.986288
1.656579 -6.6905451 18.717903
2.1571691 -5.4707718 17.96278
1.6758339 -6.8753672 18.93877
2.1608019 -5.5104208 17.987722
2.1700311 -5.5669279 18.065723
2.226306 -5.8249731 18.570019
2.233537 -5.8768368 18.628408
2.847074 -6.0471191 17.677658
0.94515097 -6.9785681 19.230202
0.949516 -7.0527911 19.334707
0.95485997 -7.1371808 19.465233
2.187052 -6.1710238 18.034119
0.91701901 -7.0214438 18.342501
2.198513 -6.2668371 18.120502
1.528788 -7.0363412 19.222599
1.537439 -7.1154141 19.339935
2.8134069 23.928102 15.885638
2.8131919 23.899252 15.920434
2.8136981 23.876892 15.959724
2.815798 23.814247 16.080936
2.818826 23.814426 16.136162
2.808881 23.697344 16.108702
2.729337 22.899324 15.705206
2.7305591 22.883751 15.747607
2.7355671 22.902079 15.814395
2.745945 22.914137 15.985032
2.748069 22.906122 16.033392
2.743885 22.814205 16.07493
2.7401991 22.727133 16.119505
2.7596371 22.872536 16.281422
2.7435479 22.674627 16.244028
2.6436629 23.98234 15.875919
2.6422729 23.914753 15.938853
2.6417651 23.855118 16.007299
2.6432581 23.842428 16.053362
2.638669 23.743376 16.093979
2.6277239 23.582373 16.090536
2.595799 23.110744 16.081934
2.4742351 24.015377 15.906919
2.473444 23.979919 15.937315
2.472831 23.891245 16.04072
2.47329 23.868687 16.080008
2.4748449 23.857485 16.127287
2.464999 23.672033 16.161947
2.4473059 23.460846 16.066784
2.4341781 23.269608 16.0396
2.4386909 23.261566 16.143101
2.4399309 23.246887 16.187294
2.43979 23.189816 16.255796
2.438669 23.122963 16.316935
2.454941 23.262117 16.474442
3.25366 22.923397 16.067892
3.246906 22.846098 16.065895
3.2541609 22.873196 16.139971
3.238893 22.678217 16.159908
3.2508919 22.740074 16.260088
3.2456119 22.646147 16.299606
3.10063 22.945757 16.296711
3.1239209 23.045422 16.536427
2.979923 23.900654 15.894329
2.9798789 23.873409 15.930203
2.9795959 23.789644 16.036503
2.97821 23.750771 16.064196
2.969347 23.648352 16.047152
