# .PCD v0.7 - Point Cloud Data file format
VERSION 0.7
FIELDS x y z
SIZE 4 4 4
TYPE F F F
COUNT 1 1 1
WIDTH 1581
HEIGHT 1
VIEWPOINT 0 0 0 1 0 0 0
POINTS 1581
DATA ascii
0.41257799 -19.140661 15.283285
2.0414431 -18.117811 14.401362
1.9619319 -18.19676 15.597163
0.41235399 -19.137239 15.232427
2.043782 -18.183914 14.361627
1.962041 -18.244516 15.540134
1.91186 -18.704517 17.12779
0.40554601 -18.530321 14.667343
2.0445659 -18.234104 14.30937
1.959245 -18.261288 15.457466
1.893518 -18.553017 16.887108
0.40845001 -18.835304 14.808891
1.2135479 -18.182899 14.0386
2.0422411 -18.232206 14.262672
1.956509 -18.25568 15.404818
0.406041 -18.624512 14.600708
1.373198 -18.84384 13.910201
1.2466559 -18.846182 14.399667
1.9641989 -18.405241 15.383016
1.888363 -18.596523 16.717779
1.363668 -18.709026 13.769258
1.960434 -18.388519 15.321534
1.3613321 -18.690996 13.712161
1.215809 -18.325029 13.921945
0.41010499 -19.090427 14.721454
1.357554 -18.688347 13.578104
1.152612 -19.087898 16.184969
0.41082901 -19.205961 14.667378
1.356418 -18.689457 13.535061
1.153277 -19.125065 16.165234
1.845804 -18.269564 16.12751
1.354282 -18.674112 13.480594
1.269828 -19.415949 14.49579
1.105225 -18.170506 15.331298
1.95581 -18.475534 15.105868
1.842618 -18.258003 16.067652
1.351904 -18.692995 13.36306
1.260811 -19.312164 14.281573
1.145649 -19.062672 15.913923
1.922943 -18.192188 14.741168
1.841866 -18.321138 15.97257
1.350167 -18.683798 13.313355
1.262988 -19.372929 14.27932
1.144644 -19.065332 15.866446
2.922828 -18.776098 14.309024
1.347831 -18.664618 13.256915
1.269303 -19.510059 14.331618
1.144626 -19.0881 15.835326
2.583642 -17.784681 16.937824
1.263369 -19.461571 14.158766
2.0418561 -18.601458 13.731469
1.142482 -19.112392 15.706681
0.40299499 -18.609173 13.773797
1.2594711 -19.4098 14.076364
2.041122 -18.614321 13.696531
1.141022 -19.105213 15.651821
0.40290499 -18.615597 13.734143
1.258479 -19.411711 14.032147
2.0391171 -18.614141 13.652311
1.140625 -19.119814 15.614433
0.40279701 -18.620317 13.693336
1.2547441 -19.402138 13.889251
2.032974 -18.611408 13.518579
1.13157 -18.999861 15.373524
0.40244001 -18.627449 13.566275
1.252695 -19.383984 13.831479
2.0304911 -18.605968 13.471049
0.40221399 -18.620401 13.517469
2.59166 -18.04896 16.765766
1.23092 -19.016846 13.487801
2.028739 -18.627422 13.398894
1.918644 -18.426085 14.325648
0.40218499 -18.643614 13.446341
2.586911 -18.063381 16.675909
1.349967 -18.943867 12.887281
1.2217081 -18.883333 13.308361
2.02441 -18.622435 13.308637
1.1312931 -19.104475 15.214441
1.775674 -19.050674 17.083305
0.544631 -19.437489 12.78317
0.40173301 -18.628849 13.348997
1.351934 -18.995234 12.878436
1.221684 -18.901985 13.277658
2.021292 -18.609966 13.256751
1.7645299 -18.939991 16.934076
0.54574603 -19.517759 12.791285
0.40149099 -18.619663 13.299266
1.357203 -19.119766 12.874412
1.219466 -18.897808 13.187981
2.017473 -18.609297 13.170035
0.97717398 -18.428873 15.650905
1.773779 -19.103561 16.971315
0.55036598 -19.815573 12.89306
0.40127501 -18.623989 13.215778
2.478543 -17.892433 17.494061
1.363343 -19.259562 12.879616
1.2163351 -18.876699 13.087401
2.222887 -19.773598 12.833333
2.013941 -18.611565 13.085822
1.02117 -19.534578 16.465803
0.400893 -18.614792 13.123458
2.4735739 -17.905731 17.399401
1.3663141 -19.3458 12.849379
1.215439 -18.896631 13.014771
2.011236 -18.621719 13.007206
1.0082051 -19.268124 16.14465
1.704489 -18.350468 16.118038
0.40077999 -18.628323 13.046973
1.369186 -19.41247 12.84925
1.2134759 -18.878254 12.959651
2.008594 -18.613482 12.959037
1.001096 -19.119511 15.972805
1.701957 -18.343285 16.062098
0.40058801 -18.623402 13.000941
1.376031 -19.564487 12.860252
1.210608 -18.861099 12.862934
2.003947 -18.603306 12.867324
0.999484 -19.126537 15.878849
1.7021869 -18.394012 16.005894
0.40020499 -18.613258 12.909018
1.381109 -19.686359 12.851093
1.209713 -18.88022 12.790512
2.006335 -18.665659 12.824415
0.99822599 -19.140928 15.791156
0.40070501 -18.685783 12.872828
2.6993899 -18.70845 15.370046
1.385185 -19.773552 12.86283
1.2088079 -18.881332 12.748879
1.076974 -18.23863 13.957274
0.99508297 -19.087236 15.698542
0.40134901 -18.76195 12.881327
1.205862 -18.879128 12.620757
1.1077631 -18.949753 14.347255
0.96878302 -18.511873 15.093069
0.40275201 -18.93581 12.869055
1.204693 -18.874866 12.575984
1.113454 -19.090979 14.404989
0.98305601 -18.882557 15.33998
0.40331301 -19.003855 12.871304
1.202994 -18.860437 12.524753
1.111233 -19.064581 14.339724
0.98413801 -18.931129 15.330249
0.404129 -19.097029 12.889834
2.595274 -18.099419 14.511678
1.202696 -18.907383 12.429475
1.109779 -19.094557 14.224152
0.96749997 -18.587589 14.916793
0.40569401 -19.286612 12.884884
1.20541 -18.976864 12.432053
1.08838 -18.659084 13.864706
0.96454698 -18.536373 14.829849
0.40347099 -19.081306 12.709001
2.730711 -18.610357 13.750718
1.208919 -19.061584 12.444074
1.085168 -18.61046 13.785344
0.96165699 -18.486506 14.744329
1.793218 -18.617104 14.40052
1.578715 -19.14875 17.207254
0.403247 -19.072098 12.660678
2.7256949 -18.634241 13.635465
1.083176 -18.626225 13.66409
1.886844 -18.645426 13.245294
2.7203059 -18.614462 13.577592
2.5180931 -18.181158 15.437386
1.081943 -18.619362 13.615271
1.884846 -18.64259 13.200302
2.7164431 -18.605921 13.52783
2.5173709 -18.198647 15.403855
2.078505 -19.724072 12.828041
1.0809391 -18.61729 13.569965
0.831756 -18.36545 15.595512
2.7092471 -18.612232 13.401531
1.078339 -18.618671 13.439889
0.98385698 -19.203949 14.919799
0.81861901 -18.040894 15.184821
2.7066929 -18.613079 13.358767
2.467145 -18.496 16.628798
1.077334 -18.616222 13.394729
0.97744203 -19.065731 14.767956
0.83075702 -18.423555 15.449775
1.076424 -18.634027 13.320334
0.97964901 -19.161999 14.746488
0.81787503 -18.082535 15.077165
2.704833 -19.268087 14.708949
1.073578 -18.610392 13.217764
0.97746199 -19.149387 14.643384
1.778547 -18.713634 13.884
0.83450198 -18.62225 15.418029
2.6884079 -19.162804 14.58389
1.073488 -18.627249 13.186358
0.97649699 -19.146118 14.594301
1.770358 -18.63608 13.783529
0.85165 -19.15724 15.799393
2.683413 -19.167301 14.494185
2.509726 -18.388523 15.034736
1.072122 -18.634361 13.105362
0.97710299 -19.201946 14.54248
1.769565 -18.666742 13.716873
0.832775 -18.635105 15.284163
2.675292 -19.147371 14.387076
2.4075849 -18.224379 15.939242
1.069428 -18.613014 13.005537
0.97376102 -19.159351 14.418414
1.765494 -18.658152 13.622526
0.84962302 -19.184843 15.624368
2.4086339 -18.280752 15.888451
1.0684429 -18.62771 12.930367
0.97269899 -19.172684 14.335858
1.762944 -18.667068 13.540905
2.6770091 -18.622923 12.851999
2.3946609 -18.188076 15.7607
1.067896 -18.634127 12.892299
0.97083497 -19.146084 14.270568
1.760571 -18.658356 13.490995
2.6788819 -18.675266 12.802438
2.381834 -18.128126 15.612639
1.072293 -18.766556 12.895874
0.94893998 -18.633766 13.809177
1.756229 -18.645502 13.394785
0.82392299 -18.517296 14.860116
2.378875 -18.149914 15.533982
1.074894 -18.859156 12.872183
0.94813102 -18.651508 13.733177
1.755303 -18.673187 13.327123
0.828713 -18.703369 14.910932
2.378746 -18.172167 15.504285
1.077781 -18.940531 12.883301
0.947101 -18.644825 13.684202
1.923862 -19.501968 12.822156
1.752118 -18.654133 13.270619
2.3777599 -18.210396 15.43971
1.0829459 -19.090141 12.89611
0.94561797 -18.645803 13.596829
1.932989 -19.643829 12.826014
0.712322 -19.299417 16.26276
2.3769889 -18.24992 15.376188
1.085171 -19.174633 12.865541
0.94371802 -18.634972 13.501395
1.939499 -19.755482 12.809905
0.70817101 -19.183704 16.066565
2.3845129 -18.336586 15.399405
1.087679 -19.247925 12.870248
0.94339401 -18.645756 13.465311
0.70786703 -19.194393 16.025131
2.381247 -18.377785 15.289164
1.092034 -19.397467 12.837788
0.94136298 -18.649805 13.337516
0.70578098 -19.179298 15.863028
2.3854921 -18.436779 15.289218
1.0954601 -19.491148 12.854707
0.94078201 -18.653719 13.296913
0.705235 -19.180252 15.814162
2.38081 -18.419886 15.227816
1.098963 -19.586617 12.872435
0.93936598 -18.636177 13.241551
0.70460898 -19.177984 15.762826
2.4081609 -18.721413 15.326382
1.105386 -19.782288 12.866402
0.93785 -18.652054 13.123288
1.63543 -18.684509 13.795814
2.357738 -18.313448 14.953195
0.93688297 -18.645632 13.076052
0.70222002 -19.170887 15.560303
1.632529 -18.666565 13.738727
0.935467 -18.627537 13.021001
0.69270301 -18.821381 15.23514
1.630739 -18.663126 13.692141
0.93414497 -18.647108 12.906479
1.626389 -18.665257 13.561717
0.93407899 -18.663446 12.875049
0.93613702 -18.734573 12.880256
0.81117201 -18.586166 13.863679
0.94073701 -18.906641 12.867025
0.80971098 -18.597494 13.738881
0.80867302 -18.584288 13.685363
0.68301898 -18.625126 14.657729
1.793184 -19.634205 12.840801
0.80784398 -18.577475 13.636555
2.591049 -19.205938 12.829274
0.80638403 -18.587439 13.51221
2.597924 -19.280579 12.834862
0.80592102 -18.591684 13.471612
2.605725 -19.381512 12.814115
0.80481899 -18.593361 13.385778
2.4278629 -18.621349 13.27083
2.365881 -18.800676 14.447147
0.80347598 -18.588116 13.295633
2.4232609 -18.602207 13.2146
2.370316 -18.861044 14.446309
0.80285603 -18.586994 13.251756
2.419724 -18.611185 13.134855
2.372292 -18.921116 14.398945
0.80191201 -18.59271 13.16964
2.414988 -18.609974 13.048598
2.3667581 -18.915359 14.303012
0.80067301 -18.589842 13.082111
2.412035 -18.623249 12.972363
2.363812 -18.931669 14.223604
1.620036 -19.002594 12.840746
2.4085989 -18.613256 12.923225
2.3600421 -18.919603 14.169297
2.4098539 -18.699961 12.811831
2.3236539 -18.681013 13.81647
2.4163339 -18.774275 12.818743
2.4859371 -19.618361 12.80894
2.2846479 -18.612404 13.156472
2.4926181 -19.695133 12.814255
2.283432 -18.620941 13.119447
2.5008571 -19.785461 12.827818
2.280391 -18.612959 13.071195
2.2738571 -18.611467 12.942272
2.2715459 -18.609695 12.898662
2.2711561 -18.643936 12.836904
2.2796791 -18.759262 12.829193
2.287044 -18.845203 12.843808
2.292316 -18.930824 12.815279
0.673926 -19.15202 12.806945
0.675381 -19.243036 12.780411
0.67712998 -19.331442 12.794618
0.68001902 -19.483252 12.806149
0.68192703 -19.5931 12.789945
0.68335402 -19.668343 12.794512
2.358192 -19.756256 12.832516
2.3299291 9.4235754 6.5385289
1.267534 10.134778 7.0135441
1.266176 10.113011 7.02212
2.3835449 9.4306774 7.0957408
1.27434 10.110543 7.2230382
1.275833 10.106542 7.26582
1.275354 10.092837 7.2796159
2.4036269 9.4232531 7.3112812
2.449985 9.4645033 7.7054338
2.256372 9.3876343 6.9340181
2.626492 9.0323429 6.1463361
2.464504 9.4747515 7.8300929
1.890367 9.6162291 6.5431099
1.8749501 9.5194778 6.5042748
1.866761 9.455761 6.5060511
2.111089 9.3448219 6.5203199
1.850934 9.3059816 6.5561762
1.853924 9.3057728 6.5972471
1.8711489 9.3945866 6.6751809
2.113107 9.3119183 6.6025529
1.536454 9.9735289 6.9489999
2.499531 9.3474588 8.3317661
2.6450851 8.8471136 6.6246819
1.82815 9.6393528 6.597506
2.6363189 8.7696104 6.6734238
2.553427 9.0994434 6.2786689
2.566529 9.1099424 6.3846951
2.09724 9.0448055 6.8624849
1.8464741 9.6250067 6.8854742
1.244967 9.182086 8.1051998
1.837324 9.5620222 6.8663301
2.386997 9.4741182 8.1567945
1.250967 9.1817446 8.2258539
1.255723 9.212781 8.2760391
1.257905 9.2102537 8.3229408
2.511328 9.0887651 8.7646866
2.4315901 9.6181202 8.3940668
2.6238959 9.1971807 6.767581
2.4360759 9.5801744 8.4885292
1.16267 9.1255436 7.939023
2.5432279 8.7903233 6.7003112
1.171744 9.1814013 8.0546522
1.177995 9.2202187 8.1336441
1.834659 10.01754 7.0535231
1.243322 8.9181395 8.4433403
1.185842 9.2844 8.2097082
2.4539449 9.5408545 8.7100449
2.548449 8.7652912 6.7853031
1.248857 8.9321585 8.5304117
1.180581 9.2024956 8.2157516
1.251516 8.9436436 8.5657253
1.186797 9.2507486 8.2796221
1.1769201 9.1464357 8.2182722
2.4603751 9.1474457 6.2642961
2.4512351 9.4685278 8.7775574
2.566082 8.7874098 6.9041562
1.181941 9.1509304 8.319334
1.194326 9.2566671 8.4322758
2.4183769 8.9218769 6.2422271
2.4504409 9.3918304 8.8669214
1.986129 8.9663029 6.870832
2.5616579 8.7141237 6.9768858
2.5300169 8.7727547 9.2876272
2.431318 9.2475567 8.870451
2.6839001 9.1331549 7.389235
2.531929 9.3082581 6.6917419
2.4074211 9.0832949 8.8537884
1.171101 8.8964911 8.446661
1.1201169 9.3695908 8.2218027
1.765538 9.9996767 7.1329451
1.162222 8.8032322 8.3899021
1.117276 9.3298759 8.2139854
1.108572 9.2197285 8.1726303
2.491554 9.3798532 9.254796
1.177936 8.9038572 8.5775537
1.112093 9.2346191 8.2335062
1.184944 8.9570179 8.6498957
1.113777 9.241188 8.2633677
1.111861 9.2004461 8.2784405
2.4371259 8.8290777 6.5797782
2.4273331 9.0434685 9.0795231
0.75031799 8.8067417 8.715251
0.75283098 8.8368797 8.7682734
2.478189 8.9523315 6.7657661
2.414216 9.3907747 6.3997979
2.4772489 9.1895924 9.3507414
2.3229361 9.4944668 8.6163111
1.928861 9.4844589 8.1761007
1.11324 9.1391106 8.3992386
1.128181 9.2678499 8.5589838
0.75730401 8.8335238 8.9459677
1.115415 9.1283531 8.46453
1.0454071 9.380784 8.132905
2.471262 8.8785839 6.8184552
2.4875209 9.1668329 9.4667349
1.120882 9.1611938 8.5429516
1.050166 9.4134617 8.2073717
1.0386339 9.2637606 8.1358204
2.4635479 8.8013687 6.868104
2.3864901 8.6821098 9.1351862
2.321629 9.3687382 8.7654562
1.118157 9.0672226 8.6122618
1.119385 9.068203 8.6385002
1.906141 9.2147961 8.2750788
1.100176 8.8661308 8.4848719
1.033987 9.149848 8.1879988
2.6317539 9.4302168 7.425601
2.4230521 9.2998934 6.6505971
2.3838151 8.6070824 9.1953077
1.897341 9.1332226 8.2807074
0.74843001 8.5482759 9.0142937
1.048889 9.2835264 8.3710852
1.4711699 9.2794199 8.1763201
0.748761 8.5423203 9.0348091
1.051125 9.2975416 8.4074306
1.1076649 8.8845978 8.6267929
2.421947 9.2416534 6.7373972
2.445154 8.7793875 9.5309048
2.317271 9.2145653 8.9152336
1.46403 9.1725807 8.2103806
1.477128 9.2575617 8.304451
2.108392 9.5104647 9.3161058
0.97203499 9.4161348 8.0241156
2.446378 9.3018026 6.8820419
2.5154569 8.9963655 9.893055
1.0485851 9.1722021 8.5259619
1.05151 9.1932116 8.5690269
1.045421 9.1157246 8.5276842
0.97037899 9.3456869 8.0883532
2.485131 8.8048601 9.8404541
1.464154 9.0743847 8.3478251
1.028541 8.8992643 8.4152412
0.96401 9.2376251 8.0736866
1.480386 9.1808014 8.4623661
1.4717391 9.0957336 8.4397163
2.539547 9.6063128 7.3054409
2.4418719 8.5632181 9.7310781
2.379478 9.3025141 9.3996096
1.011456 8.6495628 8.3434582
0.95448101 9.0611134 8.0736036
1.83666 9.2425308 8.2785158
0.97126299 9.2440071 8.2725248
2.5124581 8.7730169 10.099643
2.395978 9.3093691 9.5452538
1.388566 9.2125206 8.0839539
1.8248529 9.1531448 8.2532406
0.87695199 9.4760733 7.9716811
1.3861279 9.1722546 8.0991449
1.0378391 8.8675613 8.6867924
0.87657797 9.4515457 8.0002947
2.1906071 9.6342144 10.030583
1.9705369 9.1922741 9.0422525
1.049474 8.9808168 8.8145256
0.87723303 9.451088 8.0238161
2.4473729 9.1171284 7.1834168
2.5915201 9.0108881 10.508327
2.377826 9.1631546 9.5442791
1.787189 9.5259542 8.1908255
1.407287 9.2824373 8.3109598
1.775601 9.4339066 8.1666689
1.394883 9.1754904 8.2468634
2.4755509 9.1868219 7.3427639
0.87007803 9.2721252 8.0743313
0.97430402 9.1322546 8.5248346
0.866166 9.207428 8.0466661
0.97329098 9.1093693 8.5301399
0.86169797 9.135046 8.012578
2.406595 9.152503 9.8181648
1.845528 9.5508032 10.922911
0.97341299 9.0783024 8.5784616
0.85285997 8.9823666 7.9603791
1.845155 9.5333614 10.936573
1.5829051 9.5969524 9.5137968
0.85318398 8.9771299 7.9796309
0.85417497 8.9811497 8.006444
2.4094851 9.0957508 9.9057713
2.1959381 9.0991602 8.9841251
2.2166629 9.522109 10.460954
1.401112 9.1080608 8.509841
1.755906 9.1832447 8.3033638
0.87803 9.3354139 8.3673334
2.2290051 9.5658512 10.537243
1.3871779 8.9905262 8.4329653
2.229152 9.5517473 10.553808
2.395509 8.9704771 9.9511909
1.885251 9.2072401 8.9573507
1.881104 9.1722231 8.9519539
1.577279 9.4431658 9.6786051
2.0762761 9.4298067 9.9603834
1.863842 9.0654106 8.8811092
0.96376401 8.8442173 8.7488203
2.0793381 9.3896513 10.037962
1.835471 9.5261955 8.8699245
2.0890889 9.410655 10.117948
0.875763 9.1690044 8.5509996
2.6479571 8.8339157 8.4068441
2.410609 8.8926249 10.165562
2.0895071 9.3703184 10.166788
0.86930603 9.0487309 8.5226707
0.88029099 9.1777716 8.6848164
2.650871 8.786252 8.4882469
2.442503 8.9527864 10.382471
2.587173 9.279686 8.2469711
2.4924331 9.0841951 10.682917
1.793871 9.090827 8.9035892
1.787342 9.0411453 8.8847141
2.5827451 9.2049685 8.3076124
1.8090889 9.1415062 9.0281649
2.150449 9.4375296 10.728017
0.86754 8.8421679 8.7683392
2.5869961 9.1644831 8.3965855
1.914886 9.308773 12.050893
2.181319 9.5267172 10.951368
0.86308402 8.7496281 8.7600956
1.918653 9.3123074 12.091767
2.197871 9.5913839 11.053593
1.92265 9.3169918 12.134219
0.86788398 8.7916164 8.8502083
2.553144 9.0976706 11.187251
1.930025 9.3054237 12.230784
2.199506 9.5368204 11.125705
1.93471 9.3134537 12.27801
2.184617 9.4496708 11.063259
2.1836381 9.4293766 11.07382
2.622793 9.2775068 11.603144
2.383224 9.3428516 10.56462
2.412699 9.3985834 10.781256
2.2041521 9.400753 11.307789
1.922523 9.5086546 9.9563036
1.930812 9.5409508 10.017067
2.2000959 9.3336601 11.332867
2.4232559 9.3685865 10.909116
2.212867 9.3614254 11.432514
2.5421131 8.7158661 11.445144
2.4045551 9.2099028 10.896372
2.545913 8.6483879 11.53542
2.4272959 9.230731 11.082582
2.2577469 9.3715248 11.862891
2.554857 8.5994654 11.650197
2.463726 9.3078213 11.336649
2.259588 9.2100401 12.028133
2.190238 9.5975103 11.868271
2.5299981 9.2376757 11.98843
2.5298631 9.1512508 12.06421
2.095844 9.6476727 11.76729
2.199434 9.299057 12.237346
2.2062981 9.2961178 12.308488
1.801345 9.9884806 16.481882
1.127705 9.9455996 16.421774
1.1236809 9.8794918 16.371498
0.45654601 9.5227823 16.326658
1.121769 9.7907658 16.394342
0.455971 9.4469404 16.368143
1.12051 9.7545366 16.391134
1.764311 9.4300203 16.350327
0.455419 9.4079409 16.359049
1.118578 9.6884565 16.394569
1.7637939 9.3797903 16.378271
0.45490801 9.3525524 16.378304
1.116163 9.6172514 16.389357
1.758375 9.3000774 16.356438
0.453861 9.2768326 16.363045
1.114415 9.5759907 16.377251
1.757529 9.2714291 16.364281
0.45344701 9.2430944 16.362194
1.113374 9.5194588 16.395386
1.754307 9.205081 16.364191
1.111752 9.4567471 16.403179
1.018271 9.8818159 16.519501
1.751433 9.1408234 16.367426
1.108943 9.3818302 16.389994
1.7549829 9.1144438 16.435888
1.107888 9.3480005 16.389364
1.762259 9.1333675 16.526358
1.10519 9.2743397 16.377617
2.36134 9.978899 16.469257
1.103174 9.2079048 16.377457
1.103104 9.184268 16.393747
1.1042629 9.1271477 16.466505
1.013381 9.5719299 16.630608
1.793869 9.1230011 16.980061
1.106944 9.131196 16.531191
1.7964031 9.1129017 17.022369
1.1109 9.1479511 16.618471
1.802148 9.1210241 17.097816
1.653356 9.4473972 16.315651
1.116275 9.1318197 16.765961
1.649528 9.352191 16.324314
1.119344 9.1389246 16.837839
1.797573 8.9958944 17.114916
1.64668 9.3102608 16.310009
1.121528 9.1370277 16.894102
1.645092 9.276556 16.309317
1.1261081 9.1110249 17.027985
1.640797 9.1786327 16.311815
1.125349 9.0795631 17.031908
1.638739 9.1419973 16.305698
1.637784 9.1124449 16.311558
1.564539 9.9303637 16.302544
1.647036 9.100667 16.461571
1.572183 9.9160624 16.444044
1.650488 9.098793 16.515705
1.561639 9.8163013 16.339605
1.655986 9.1096764 16.592352
1.560151 9.7822399 16.339888
1.664126 9.0888453 16.730696
1.556264 9.6843872 16.346977
1.668833 9.0940905 16.798872
1.555361 9.6545849 16.353794
1.67352 9.0747232 16.883101
1.552235 9.5856504 16.351791
1.54737 9.5044279 16.32917
1.545594 9.4685421 16.325413
2.3374641 9.0960646 16.815395
1.542766 9.4020023 16.326094
2.3514969 9.1066751 16.953312
1.543154 9.3579721 16.364374
0.34391299 8.8784065 16.87616
2.3554821 9.0739708 17.014936
1.5396 9.2864256 16.35601
0.34399 8.8543539 16.953226
1.538265 9.2537394 16.356945
0.34431699 8.8603249 17.025215
1.533703 9.1753531 16.336229
1.533795 9.1292019 16.370262
1.536831 9.1265297 16.422707
1.544937 9.1346502 16.551916
1.549831 9.1203461 16.643049
1.552717 9.115963 16.693916
2.2037041 9.0832148 16.583414
1.560673 8.8539877 17.000738
1.426704 9.2096434 16.33716
1.4251961 9.1749659 16.334526
1.547339 8.6453714 16.918697
0.68586099 10.195884 16.224031
1.543061 8.5447998 16.913555
1.538813 8.4689846 16.89279
0.68087 9.9671888 16.192053
0.68081802 9.9249182 16.233509
1.2035691 10.341713 16.184193
2.0872259 9.1258535 16.483452
0.67856401 9.8365707 16.202303
0.67705297 9.7845211 16.173861
0.67602903 9.7220936 16.182581
0.67444998 9.6481104 16.172516
2.1344099 9.1088352 17.040974
2.566031 9.8727369 16.344822
2.5559831 9.7355127 16.344625
1.972235 9.2809935 16.312733
1.968783 9.2392902 16.298265
1.964215 9.1446857 16.305756
1.961538 9.1071787 16.297852
1.9134279 9.9970083 16.47817
1.965035 9.1016397 16.344994
1.896179 9.8721447 16.335752
1.974551 9.0793285 16.477772
1.981517 9.0910625 16.55611
1.175253 9.3100071 16.340342
0.676085 9.1052713 16.786037
1.174233 9.2772789 16.341333
0.67830098 9.1260004 16.882381
1.173637 9.248642 16.349133
1.170786 9.1526318 16.354856
1.172313 9.1441545 16.396933
1.175571 9.1288776 16.484436
1.180423 9.1280785 16.598106
1.18269 9.1259546 16.652397
1.1845649 9.0965729 16.717545
2.560827 9.0273123 16.85813
1.195411 9.1023016 16.964603
1.197567 9.0981913 17.017361
2.61005 9.0904541 17.275057
2.61498 9.0583591 17.340227
2.6160641 9.0369787 17.363279
2.622329 8.9838152 17.453117
2.6276901 8.9781237 17.505819
2.6307859 8.9638853 17.542788
2.632772 8.8937759 17.602638
0.349648 -2.9416039 17.1073
-0.27242801 -2.978303 17.545288
0.35112101 -3.0265319 17.279224
-0.27201599 -3.002636 17.524944
0.351096 -3.0531819 17.274565
-0.27415201 -3.0699461 17.590462
-0.27419299 -3.124208 17.580822
-0.27460301 -3.1538379 17.589775
-0.27547699 -3.213567 17.609495
-0.27551699 -3.2678871 17.599405
-0.275543 -3.2950399 17.594364
-0.275608 -3.37644 17.578844
-0.165619 -3.7931211 17.245441
-0.27563301 -3.4035599 17.573631
-0.16564199 -3.8197169 17.239574
-0.27565801 -3.4306719 17.568377
-0.16569699 -3.8994341 17.221592
-0.27901199 -3.535816 17.669779
-0.165719 -3.9259911 17.215557
-0.27947599 -3.5662849 17.679985
-0.165741 -3.952538 17.209482
-0.27950099 -3.5935631 17.674475
-0.28126299 -3.6881421 17.718187
-0.27607501 -3.675931 17.52672
-0.170224 -4.1335969 17.376451
-0.274508 -3.6908059 17.46435
-0.171308 -4.2255788 17.403545
-0.27451301 -3.771152 17.445017
-0.17034 -4.2412062 17.352398
-0.274811 -3.8002169 17.448942
-0.17058501 -4.297173 17.348766
-0.274791 -3.8535841 17.435059
-0.170369 -4.347672 17.323792
-0.275166 -3.9100201 17.43479
-0.17034601 -4.3738842 17.315117
-0.27502501 -3.935569 17.422894
-0.170159 -4.4247179 17.291714
-0.275058 -3.989289 17.410534
-0.170329 -4.479579 17.283751
-0.27488399 -4.0411448 17.39036
-0.170314 -4.5323362 17.267754
-0.27491599 -4.0947618 17.377668
-0.17054901 -4.5615821 17.270372
-0.274719 -4.1196871 17.363552
-0.17067499 -4.6158881 17.260038
-0.274708 -4.1727548 17.348808
-0.17147499 -4.67874 17.280216
-0.27479401 -4.2267189 17.337645
-0.177349 -4.778708 17.534822
-0.28371301 -4.3318038 17.645355
-0.476495 -2.938838 17.416952
-0.383499 -3.502013 17.630314
-0.485201 -3.0303271 17.624422
-0.37953201 -3.531966 17.501896
-0.48194301 -3.0700009 17.532265
-0.379758 -3.56019 17.502308
-0.501867 -3.1862681 18.025208
-0.38837099 -3.694798 17.735708
-0.488098 -3.205982 17.664286
-0.385057 -3.7010419 17.632305
-0.48356301 -3.212059 17.54538
-0.38434699 -3.7235601 17.605099
-0.493029 -3.2832949 17.776136
-0.38501099 -3.8088951 17.605122
-0.49309999 -3.365531 17.760672
-0.38517001 -3.8369241 17.60313
-0.49312699 -3.392931 17.755476
-0.38445899 -3.8592269 17.575747
-0.48906299 -3.400378 17.648249
-0.385122 -3.9445579 17.5751
-0.48984 -3.485543 17.64987
-0.384745 -3.968945 17.557312
-0.489158 -3.5092039 17.626856
-0.38376701 -3.989182 17.521975
-0.483834 -3.509264 17.488274
-0.37520501 -4.0101929 17.252413
-0.47878501 -3.5636051 17.344585
-0.36722001 -4.0849319 16.986048
-0.46622801 -3.629034 17.002058
-0.37927401 -4.198144 17.328835
-0.47310001 -3.6923521 17.166307
-0.379307 -4.251555 17.315651
-0.47786 -3.771219 17.271774
-0.38363001 -4.3366609 17.426367
-0.477909 -3.824465 17.260067
-0.38418701 -4.3675189 17.435129
-0.477934 -3.851073 17.25415
-0.38468701 -4.4247961 17.434952
-0.47797 -3.9042511 17.242056
-0.38473099 -4.478548 17.421188
-0.48187599 -3.979655 17.325293
-0.38476199 -4.5322452 17.407124
-0.48309299 -4.039958 17.341965
-0.38077101 -4.5278811 17.28429
-0.475164 -4.019896 17.139366
-0.058125999 -3.1707821 17.093449
-0.058993999 -3.2072029 17.141605
-0.059020001 -3.597945 17.041161
-0.059383001 -3.8361371 16.999115
-0.059388999 -3.8880401 16.985123
-0.059413999 -3.914207 16.979107
-0.059838001 -3.972059 16.990299
-0.059749998 -4.022511 16.970053
-0.059680998 -4.0472379 16.957996
-0.05999 -4.1294098 16.954468
-0.060013998 -4.1555262 16.948071
-0.059788 -4.1777372 16.926119
1.577377 9.0278587 13.916128
0.42924201 8.9789 13.879964
1.57366 8.9639969 13.911488
0.42904001 8.9418764 13.91484
1.5748841 8.9324141 13.954731
0.428846 8.9047213 13.949754
-0.144058 9.1288404 13.952501
-0.141827 9.0207672 13.883657
-0.141765 8.9944143 13.88965
0.33479401 9.0406122 13.840663
0.33562201 9.0686703 14.015525
0.33486801 9.0061369 13.968666
0.90631199 8.7866554 14.102203
-0.23680601 8.9222832 13.910115
0.902502 8.7196417 14.045879
-0.240376 8.9707718 14.027017
2.4825621 9.0389538 13.366428
0.90586901 8.7044086 14.160841
-0.238087 8.8523359 13.98619
2.4991341 9.0853262 13.474463
0.90310597 8.6507473 14.124248
2.4769101 8.9587135 13.379973
2.4887149 8.9664125 13.476481
2.49404 8.9678087 13.521549
1.99797 9.4821968 13.969806
2.5038159 8.9668732 13.606769
2.0239811 9.5792027 14.196309
2.503799 8.9274178 13.636762
2.5029111 8.8845243 13.661589
1.384289 9.0299683 13.893388
2.0345831 9.573596 14.324645
2.4961331 8.8385868 13.638
1.382816 8.9991541 13.892821
-0.34121001 9.4111195 13.991928
2.4840209 8.7525339 13.598729
1.383096 8.9621162 13.927928
2.4906271 8.7384319 13.665737
1.383952 8.929389 13.969385
-0.33031699 9.0375013 13.809747
-0.33742899 9.1341496 13.99569
-0.33350301 9.044611 13.909348
-0.335381 9.0056725 13.986834
1.286781 8.9904871 13.890733
1.982255 9.8166695 14.724576
1.2862231 8.9663897 13.900011
1.287684 8.9590826 13.93402
1.862834 9.0156918 13.888393
2.652555 8.7884073 13.393353
1.9784811 9.6052017 14.844702
-0.426615 8.8591833 13.926895
1.872649 9.0092764 14.013445
-0.43039799 8.8894739 14.01733
1.869864 8.9540949 14.021989
2.0017991 9.5585442 15.164083
2.334197 9.0439405 13.756346
2.3305509 8.9689589 13.779407
0.050037 9.0565271 13.838369
1.1922899 8.9997044 13.902112
0.047860999 9.1232691 14.025531
1.19271 8.9648857 13.940357
0.049254 9.0124636 13.907583
1.192186 8.9407444 13.949571
2.3546951 8.9092808 14.050378
0.61998099 9.0434208 13.819903
0.62521899 9.1401186 14.005883
0.62158102 9.0089798 13.948008
0.62106401 8.9803362 13.950657
1.067663 9.0631886 13.955073
1.062961 8.9754553 13.915885
1.0628639 8.936142 13.947568
0.60882097 -8.331975 27.390129
0.599635 -8.2650623 26.732681
0.59862202 -8.2854481 26.653042
-0.378034 -7.699451 26.382948
0.597413 -8.3013611 26.560061
-0.37667599 -7.803124 26.283405
1.566437 -7.9809332 26.375269
-0.375025 -7.821238 26.196611
-0.387932 -8.036622 26.756161
-0.38575399 -8.1302776 26.618896
1.3949291 -7.6779609 26.248163
-0.38280901 -8.1304407 26.474514
0.436165 -7.6902571 27.066751
1.395949 -7.7255192 26.259167
-0.377709 -8.1001987 26.234816
0.60615301 -8.9147682 27.030207
0.43611801 -7.7317162 27.052828
1.560782 -8.314662 26.156063
1.396584 -7.8522911 26.23798
-0.38358399 -8.3043833 26.45369
0.43930599 -7.9704008 27.400053
1.562542 -8.3663588 26.177277
1.396906 -7.8953242 26.233374
0.432908 -7.791265 26.637714
1.56043 -8.4344368 26.111111
0.43186101 -7.8383799 26.494398
0.43217701 -7.9339061 26.513897
0.432702 -7.9948368 26.566566
0.43352899 -8.1084137 26.642721
0.271557 -7.9496369 27.658766
0.271121 -7.9406672 27.469828
0.27031901 -8.0194721 27.115196
1.2517771 -7.5701079 26.78721
0.27033201 -8.0673513 27.121819
0.26967701 -8.1147232 26.827562
0.26943299 -8.1273813 26.721273
0.269346 -8.1611204 26.68376
1.241902 -7.828258 26.445696
1.23432 -7.8113251 26.24221
2.2085471 -8.2409477 26.195145
0.270513 -8.501833 27.183069
1.241312 -7.9062161 26.407816
2.2048559 -8.2662964 26.134815
1.239357 -8.0142488 26.32275
-0.73187298 -8.2268524 27.121861
0.26955301 -8.5474072 26.750925
1.253371 -8.1656818 26.665142
2.202424 -8.4183149 26.052378
-0.71805203 -8.1463184 26.713835
0.26975599 -8.6218452 26.838331
1.242545 -8.1215944 26.379675
2.200346 -8.4499531 26.012724
-0.71587402 -8.1681261 26.638144
1.228183 -8.1699286 25.968718
1.253382 -8.5391064 26.553518
1.091527 -8.2589073 26.72698
0.917252 -7.7500558 26.497875
0.91887498 -7.809516 26.54707
0.93188602 -8.2489662 26.94689
1.854774 -8.3838463 25.666195
1.6804301 -7.8526988 26.634697
1.677716 -7.9208679 26.562189
-0.223643 -8.0878601 26.646463
1.661561 -8.2009649 26.164686
1.662811 -8.2488146 26.174721
1.660859 -8.2784309 26.127609
1.667941 -8.4413242 26.215755
1.659565 -8.6358919 25.989828
1.66594 -8.7145462 26.089869
1.827208 -18.671915 27.048279
1.8355319 -18.976158 27.034599
0.66487402 -19.283039 26.595888
1.804968 -18.659035 26.502787
0.66281301 -19.235144 26.445032
0.66298997 -19.282087 26.42292
0.65827203 -19.196266 26.053383
0.65777802 -19.213821 25.992916
0.65129501 -18.973707 25.590658
1.8151619 -19.144278 26.396315
0.64912897 -19.178181 25.206856
1.6749001 -19.642279 27.531767
0.64841098 -19.184122 25.134142
1.679806 -19.792187 27.558912
0.647744 -19.227444 25.029701
1.676043 -19.825691 27.42585
0.64779502 -19.303684 24.967808
1.671459 -19.805555 27.309404
1.666778 -19.824862 27.158745
1.659644 -19.89237 26.89958
1.642144 -19.773916 26.483877
1.469772 -19.250443 27.68194
1.5766619 -19.704409 24.603052
1.4560111 -19.289972 27.198156
1.573388 -19.694546 24.513298
1.448068 -19.208052 26.996216
1.5670069 -19.713022 24.304655
1.427794 -19.215115 26.313543
1.392073 -18.689034 25.521915
0.27408201 -19.093678 25.336973
0.27431101 -19.206285 25.321293
1.279377 -19.265978 28.03393
1.393968 -19.067354 25.287621
1.388844 -19.099018 25.087051
1.389596 -19.187702 25.041325
1.384173 -19.212393 24.834585
1.24823 -19.24003 26.826965
1.377019 -19.206966 24.592173
1.237469 -19.161259 26.458929
1.371902 -19.307632 24.330559
1.355334 -19.2127 23.834002
1.356545 -19.30547 23.796852
1.046941 -18.881676 26.815617
1.0620151 -19.304701 27.228382
1.053844 -19.201305 26.908808
1.939225 -18.407047 27.012224
1.048986 -19.131287 26.725107
1.042809 -19.069948 26.468145
1.0382921 -19.046349 26.265068
1.02583 -19.031586 25.658661
1.019735 -18.927774 25.439096
1.022017 -19.058584 25.448114
1.017797 -19.035152 25.254906
1.0143681 -19.105402 25.024561
1.016207 -19.18714 25.049826
1.014955 -19.195133 24.980375
1.008505 -19.152426 24.68894
1.00818 -19.181944 24.647955
1.006516 -19.17905 24.566233
2.075789 -19.310005 23.726618
2.0825739 -19.416868 23.7808
1.854069 -19.262379 24.34474
1.84995 -19.251196 24.253883
1.846866 -19.288439 24.14682
1.829934 -19.270302 23.746756
-0.28013799 -18.576551 13.817641
-0.27389899 -18.57081 13.375008
-0.27328601 -18.569887 13.331075
-0.27241799 -18.559013 13.28034
-0.27101099 -18.573509 13.161227
-0.27018601 -18.563885 13.111813
-0.26965699 -18.565712 13.070346
-0.26799601 -18.569025 12.944859
-0.26776299 -18.582127 12.91131
-0.26861799 -18.661346 12.879607
-0.27187201 -18.833858 12.909565
-0.27286401 -18.895235 12.907638
-0.27418 -18.993034 12.886711
-0.277132 -19.154533 12.906925
-0.278274 -19.245853 12.880466
-0.279643 -19.322603 12.887192
-0.28229499 -19.47294 12.897856
-0.28364399 -19.572927 12.875357
-0.28530499 -19.661774 12.888619
-0.28852201 -19.859415 12.883195
-0.69182003 -18.703703 13.622329
-0.69095999 -18.730537 13.553217
-0.68902099 -18.711975 13.496311
-0.68631601 -18.699036 13.39992
-0.68545502 -18.725092 13.330941
-0.68351603 -18.705961 13.274352
-0.68102902 -18.718718 13.153522
-0.56125098 -19.519964 12.900144
-0.67963701 -18.710699 13.10507
-0.56369501 -19.60368 12.910385
-0.67848003 -18.707535 13.060043
-0.569336 -19.813025 12.912937
-0.67606997 -18.72068 12.940699
-0.57197601 -19.902092 12.925506
-0.67460001 -18.710518 12.891353
-0.69497502 -19.506098 12.684201
-0.148643 -18.765448 13.86847
-0.147136 -18.73455 13.757302
-0.146181 -18.734108 13.668343
-0.14562701 -18.728853 13.620509
-0.144336 -18.708218 13.518087
-0.14387301 -18.733013 13.447871
-0.14316601 -18.719063 13.394531
-0.141965 -18.72751 13.270031
-0.14138 -18.719721 13.221447
-0.140857 -18.715124 13.175178
-0.139717 -18.725563 13.053358
-0.139194 -18.720596 13.007237
-0.13864 -18.713871 12.960045
-0.13811199 -18.756311 12.860805
-0.13921399 -18.839199 12.873468
-0.140131 -18.912169 12.879279
-0.142142 -19.092976 12.870192
-0.14293399 -19.15946 12.870895
-0.14387199 -19.25901 12.849885
-0.145943 -19.419151 12.867472
-0.147101 -19.506067 12.880253
-0.14788 -19.597519 12.852305
-0.149737 -19.77754 12.878845
1.650582 -11.096653 27.081385
0.61480498 -11.621917 26.713503
0.61578703 -11.733259 26.740873
0.613217 -11.700372 26.556427
1.63696 -11.613587 26.565399
1.635954 -11.646652 26.528994
0.607849 -11.910714 26.046368
1.634551 -11.676363 26.485256
0.60820198 -11.962103 26.051291
1.45972 -11.350971 26.52684
1.457939 -11.499252 26.418741
1.459408 -11.553962 26.431822
1.4559 -11.562519 26.340704
1.493687 -12.039802 27.075188
1.467481 -11.835098 26.510046
1.477172 -12.009193 26.674671
1.482906 -12.14694 26.756878
1.486734 -12.225254 26.817711
1.3221231 -10.979806 27.629478
2.3487229 -11.268693 27.130888
1.315012 -10.952061 27.438219
2.3516331 -11.326351 27.149994
2.340028 -11.348589 26.96962
2.3408971 -11.436941 26.94492
0.43902901 -12.13709 25.991302
2.3351691 -11.447806 26.855654
1.305305 -11.235463 27.047579
1.109126 -10.60583 26.514217
1.116665 -10.736523 26.718004
1.102968 -10.697025 26.269936
1.311627 -12.141751 26.841133
1.106124 -10.775977 26.345566
1.135412 -11.508592 27.041464
1.130891 -11.535902 26.87508
1.132334 -11.595962 26.899179
1.999599 -11.310495 27.101522
1.99345 -11.355239 26.97419
1.993307 -11.396283 26.954597
1.146988 -12.330838 27.080942
1.990943 -11.506437 26.866028
1.134587 -12.209204 26.707853
1.9894511 -11.538501 26.826084
1.133936 -12.2422 26.670622
1.987591 -11.568059 26.780621
0.931831 -11.025453 26.220486
0.93203199 -11.06926 26.210592
0.78239 -11.429257 27.061728
0.767519 -11.499161 26.207399
-0.35652 -6.6949329 15.734376
-0.294718 -8.0854445 16.641687
-0.176493 -8.326437 16.034128
-0.36659199 -6.864357 15.987789
-0.364595 -6.9135861 15.900717
-0.17873301 -8.4744301 16.07324
-0.36721799 -6.9699588 15.961066
-0.178174 -8.4867373 16.037176
-0.28988501 -8.1592751 16.408346
-0.367562 -6.99861 15.959318
-0.178508 -8.5683489 16.011223
-0.36918199 -7.092092 15.970001
-0.36872199 -7.1108189 15.94623
-0.37240899 -7.2059522 16.023693
-0.37008101 -7.225667 15.937782
-0.18109199 -8.7745018 16.034882
-0.369553 -7.2433958 15.912037
-0.18008199 -8.8011274 15.967299
-0.37116101 -7.3127651 15.932677
-0.37446201 -7.4038072 15.998295
-0.37204701 -7.4218678 15.910155
-0.183522 -9.0035267 16.036688
-0.372457 -7.4515309 15.909392
-0.37394699 -7.51963 15.925685
-0.18661299 -9.1746883 16.104382
-0.409805 -8.038456 16.862705
-0.183893 -9.1356859 15.981417
-0.18512601 -9.2634811 15.973837
-0.401921 -8.088253 16.575842
-0.38771099 -7.9731331 16.159746
-0.38879001 -8.0124846 16.175814
-0.38544399 -7.9919 16.07431
-0.38777199 -8.0529566 16.00909
-0.39586601 -8.3133764 16.146833
-0.39242601 -8.2904148 16.043818
-0.39299399 -8.3728514 16.020622
-0.39758599 -8.561965 16.075796
-0.39976501 -8.667964 16.093191
-0.062178001 -6.8495908 15.829456
-0.063547 -6.9331961 15.886641
-0.064359002 -7.0032949 15.912306
-0.066266999 -7.0770602 16.01078
-0.066109002 -7.1221261 15.979589
-0.067575 -7.4325118 15.94166
-0.082305998 -9.3361292 16.018286
-0.082744002 -9.4755011 15.972258
-0.31116301 -19.093388 15.412996
-0.31012401 -19.080807 15.354727
-0.309459 -19.108879 15.280049
-0.307423 -19.084476 15.165105
-0.30672401 -19.083954 15.1169
-0.30571699 -19.098461 15.032638
-0.30380699 -19.077623 14.921913
-0.30020601 -18.994055 14.764334
-0.30091 -19.045406 14.756234
-0.30048999 -19.079332 14.688143
-0.29931301 -19.08573 14.599577
-0.298401 -19.075941 14.54587
-0.296832 -19.065662 14.445766
-0.295867 -19.079144 14.36345
-0.29453099 -19.052637 14.298228
-0.74784899 -19.267767 15.190839
-0.746378 -19.262497 15.138748
-0.74475002 -19.253937 15.084281
-0.74147898 -19.260958 14.946487
-0.73977298 -19.250347 14.891018
-0.73853701 -19.249191 14.84283
-0.73291498 -19.206633 14.66972
-0.72925198 -19.155287 14.584804
-0.73183501 -19.25613 14.566168
-0.72951901 -19.25552 14.472708
-0.729222 -19.272814 14.439004
-0.726246 -19.258701 14.336191
-0.72385103 -19.255486 14.241912
-0.72197002 -19.263231 14.155817
-0.720734 -19.260471 14.108218
-0.16689099 -19.253733 15.062317
-0.166244 -19.246553 15.009139
-0.165288 -19.223324 14.943931
-0.16232499 -19.149483 14.746442
-0.16282099 -19.20085 14.738021
-0.16257501 -19.213776 14.700764
-0.16146401 -19.23444 14.575766
-0.160909 -19.230965 14.526655
-0.160198 -19.246281 14.444985
-0.15877999 -19.222462 14.335257
-0.15816399 -19.215221 14.284021
1.062909 -3.9054201 16.967253
1.07461 -3.986294 17.190481
1.066939 -3.9768519 17.034761
1.076141 -4.3654699 17.134735
1.583631 -3.9517391 17.083836
1.571566 -3.943177 16.930273
2.1855919 -3.8627779 16.930656
2.209409 -3.9622159 17.119682
2.1859961 -3.9419069 16.916353
1.468614 -3.8736939 16.941505
1.4747159 -3.9715509 17.004732
1.478575 -4.1154499 17.025734
1.480019 -4.1465311 17.038713
1.378288 -3.915941 17.116302
1.984181 -3.672956 17.024511
1.482643 -4.6020632 16.961903
1.4697061 -4.6065931 16.778679
1.477154 -4.6862121 16.862028
1.477134 -4.712184 16.854763
1.988307 -3.9181559 17.012383
1.477096 -4.764092 16.840105
1.981691 -3.9558401 16.938152
1.477071 -4.8159399 16.825153
1.477052 -4.8418531 16.817684
1.485801 -4.9540262 16.909489
1.483584 -4.971395 16.873167
2.4993 -3.9077809 16.960617
1.159134 -3.580745 17.638718
1.8763011 -3.8501611 16.939543
1.159642 -3.609967 17.642963
1.892133 -3.9663601 17.080181
1.159786 -3.692349 17.629881
1.166173 -3.7446401 17.741341
1.166131 -3.799319 17.729588
1.166077 -3.8539741 17.717796
1.166051 -3.8812881 17.711838
1.159597 -3.9094701 17.582769
0.66375399 -4.448585 17.237711
0.66352397 -4.4730778 17.223089
1.792919 -3.951654 17.135962
1.542251 -18.620337 19.548731
1.551638 -18.781609 19.653946
1.566178 -19.045078 19.801588
1.5563411 -18.965675 19.599789
1.458297 -19.637959 20.97954
1.5637439 -19.099951 19.675056
1.453887 -19.599989 20.875046
1.544005 -18.878391 19.332207
1.440841 -19.609566 20.438507
1.434643 -19.571793 20.274343
1.431895 -19.587927 20.165934
1.271493 -19.160866 20.85717
1.269577 -19.157454 20.789291
2.1804941 -19.070398 19.108978
2.0450029 -18.629011 20.086905
2.0560019 -18.802174 20.14572
2.0766029 -19.073736 20.305962
2.0507891 -18.839958 19.999462
1.944368 -18.771658 21.346094
1.934792 -18.73181 21.17004
2.064666 -19.134186 19.99571
1.933362 -18.748396 21.12294
1.935042 -18.831011 21.083336
1.936025 -18.905447 21.03446
1.943312 -19.017633 21.091524
2.043838 -19.156624 19.531193
1.939662 -19.294146 20.741837
1.833863 -18.344198 19.261103
1.747805 -19.233866 21.716642
1.7391 -19.157648 21.564945
1.8485301 -18.598137 19.342649
1.738157 -19.210718 21.48996
1.8484989 -18.656265 19.282921
1.865739 -19.057552 19.269459
1.703783 -19.218201 20.586998
1.696677 -19.15766 20.459993
-0.021877 9.1416922 7.9176779
-0.020932 9.0544758 7.918232
-0.029641001 9.3702374 8.2214327
-0.027900999 9.2839003 8.1756897
-0.030247999 9.2243471 8.3467541
-0.030858999 9.2139387 8.3873844
-0.031257 9.212491 8.4110012
-0.092391998 9.0839415 8.0040693
-0.095757 9.171957 8.0988388
-0.098644003 9.1978197 8.2161436
-0.102373 9.2956867 8.3207502
-0.101684 9.131588 8.4057178
0.329173 9.2915363 8.6306086
-0.098595001 9.0233212 8.3387451
0.32741201 9.1560173 8.5399036
-0.098820001 9.0143089 8.3556147
0.325113 8.9719772 8.4809456
0.323304 8.8330011 8.3848362
-0.160404 9.1444044 7.8938022
-0.173654 9.4015589 8.2195158
-0.17309199 9.3726025 8.2205496
0.18798301 9.149251 7.8651152
0.18772601 9.1281834 7.8951559
0.18756901 9.1356478 7.9244952
0.18728501 9.1331615 7.969584
-0.17010801 9.1335621 8.2922649
-0.16702899 9.0435839 8.241066
0.18656699 9.2716856 8.1518688
0.185895 9.3791933 8.3116684
0.18587901 9.3129091 8.2823019
-0.24611001 9.3203554 8.3054714
0.050655998 9.2359467 7.7371302
0.048903 9.097682 7.931571
0.48081699 9.6918983 8.2218161
0.046349999 9.2285671 8.0594215
2.0669019 -0.089977004 11.221569
2.025116 0.49493 11.592017
2.066149 -0.175577 11.217046
2.053225 0.41314399 11.779742
2.0657189 -0.261159 11.213825
1.823836 0.01319 12.317485
1.827521 -0.0057700002 12.345365
2.0635631 -0.237029 11.861152
1.823226 -0.043349002 12.313813
2.0670841 -0.32834601 11.883181
1.823957 -0.28854701 12.31957
1.823089 -0.34491 12.312357
1.824124 -0.36401999 12.319846
1.825158 -0.383154 12.327304
2.3846171 -0.403532 11.302887
2.1396611 0.56458598 11.683297
2.1146629 0.45511001 11.542808
2.1333351 0.374208 11.658878
2.124192 0.030839 11.619862
2.3056381 -0.63163698 12.079792
2.044822 0.61298198 11.741398
2.3053989 -0.720653 12.074976
2.0783761 -0.136925 11.365416
2.071104 -0.23616301 11.32272
1.815308 0.37690201 11.955586
1.818072 0.35984799 11.976079
2.3048911 -0.91632199 12.061807
2.067874 -0.31873599 11.303284
1.747574 0.344547 11.965819
1.75049 0.327575 11.988258
1.935158 0.56186903 11.697071
2.974791 -5.8940229 24.83749
2.9832389 -5.9508882 24.90365
2.981015 -6.0232902 24.865637
2.9759469 -6.0892558 24.802477
2.9737389 -6.1228409 24.773722
2.975867 -6.2045221 24.773729
2.977325 -6.2847919 24.767826
2.976423 -6.321177 24.750347
2.977248 -6.3998899 24.738159
2.9776199 -6.4775848 24.722012
2.979533 -6.5588522 24.718916
2.9799371 -6.598207 24.712538
2.9805281 -6.6763759 24.697672
2.980052 -6.751822 24.67285
2.980891 -6.7922091 24.669987
2.9814739 -6.9084721 24.643665
2.981879 -6.947762 24.636723
2.9829359 -6.9887028 24.635445
2.98526 -7.1093349 24.623442
2.985014 -7.1469278 24.610456
2.9865069 -7.1890368 24.612656
2.9907899 -7.314908 24.616789
2.9911971 -7.3542132 24.609188
2.9935601 -7.3987522 24.618633
2.995671 -7.519032 24.602701
2.9973831 -7.5619092 24.606155
2.9984429 -7.6030221 24.603846
2.9981661 -7.7167091 24.566074
2.9992261 -7.7578192 24.563501
2.997673 -7.8295922 24.525879
1.932252 13.981357 33.387035
2.3903091 14.786243 33.587402
2.3744681 14.580716 33.404106
2.374037 14.528551 33.42527
2.3773911 14.452227 33.531189
2.361809 14.250281 33.349709
2.368062 14.192801 33.498913
2.3553309 14.060119 33.332371
2.350503 13.930217 33.312355
2.3450639 13.796706 33.282509
2.3407841 13.72001 33.243534
2.3460879 13.655403 33.377029
2.335959 13.492546 33.274113
2.333734 13.42925 33.265854
2.0801959 14.440817 33.355953
2.079469 14.386315 33.371414
2.06598 14.087963 33.24712
2.066539 13.847688 33.394028
2.057452 13.731083 33.261311
2.05527 13.617232 33.276764
2.0495491 13.477388 33.22924
2.049355 13.427074 33.252342
2.046658 13.309688 33.257511
2.0425141 13.181883 33.236492
2.040338 13.117332 33.223949
2.038172 13.004039 33.237293
2.0334101 12.872378 33.203976
2.030937 12.757134 33.210907
2.004725 19.841455 31.074848
2.8871989 21.506941 29.99357
2.8875771 21.466787 30.035503
2.8869259 21.418343 30.066092
2.8867199 21.286745 30.176659
2.886951 21.245079 30.216671
2.8864491 21.197536 30.248514
2.8866861 21.068468 30.362976
2.8857441 21.017256 30.389647
2.8856051 20.928486 30.462179
2.886364 20.846304 30.544409
2.8848369 20.790306 30.56414
2.8847001 20.700941 30.635996
2.8844349 20.610195 30.706079
2.8830609 20.242678 30.980095
2.880239 20.086618 31.055424
2.8806219 20.044407 31.0954
2.8798339 19.993368 31.121975
2.877897 19.843319 31.206064
2.877696 19.796473 31.239002
2.873986 19.72364 31.231627
2.8729279 19.579596 31.324444
2.872436 19.530411 31.353607
2.4351289 19.624638 31.196056
2.4209371 19.455158 31.036959
2.4187551 19.391401 31.04236
-3.2322669 -8.1037006 87.513741
-3.2330289 -8.3788481 87.499863
-3.2339821 -8.5178099 87.506584
-3.235261 -8.7942581 87.503456
-3.235703 -9.068635 87.479446
-3.236027 -9.2060432 87.46917
-3.2385571 -9.4860096 87.495651
-3.2399349 -9.7630529 87.493294
-3.240257 -9.9005127 87.481918
-3.2425001 -10.316736 87.480118
-3.242348 -10.452771 87.455963
-3.242981 -10.591165 87.451439
-3.2453749 -11.008095 87.450302
-3.2460849 -11.146807 87.446877
-3.247344 -11.287329 87.457108
-3.249023 -11.702273 87.434807
-3.250437 -11.843488 87.448097
-3.2512231 -11.982596 87.445328
-3.2529731 -12.398004 87.421692
-3.253835 -12.537454 87.420013
-3.255424 -12.816069 87.413879
-3.257067 -13.094838 87.406975
-3.2583201 -13.235903 87.414055
-3.2599039 -13.514758 87.405685
-3.261935 -13.795322 87.406418
-3.2624929 -14.070218 87.370605
2.5686131 -6.0899501 27.170012
2.570792 -6.1379352 27.185776
2.4054339 -6.1477098 27.185965
2.399359 -6.2149749 27.092812
2.4163139 -6.4753089 27.253002
2.3683879 -6.417573 26.647722
2.3800659 -6.5355659 26.770775
2.374054 -6.7248869 26.647596
2.382061 -7.330533 26.596375
2.387733 -7.3911672 26.654055
2.4098799 -7.5082612 26.911177
2.2365911 -6.6901021 27.013996
2.212172 -6.7333231 26.66172
2.2109649 -6.7706938 26.635778
2.2131159 -6.8609018 26.643417
3.010751 -5.5494881 26.774263
2.2146599 -6.9492011 26.643173
3.0090649 -5.5877471 26.750059
2.2084701 -6.9689088 26.551409
3.0100319 -5.6728048 26.742205
2.2071049 -7.0465698 26.512156
3.00913 -5.754086 26.716715
2.2159801 -7.1609759 26.607466
2.220638 -7.2192249 26.657833
3.0043001 -5.8684392 26.644863
2.871958 -5.973125 26.941002
1.741715 13.824469 13.529145
1.737108 13.74617 13.537243
1.690248 13.033399 13.501648
1.686287 12.94313 13.533684
1.643842 13.99503 13.631713
1.6366431 13.869861 13.637722
1.631802 13.804469 13.617252
1.626753 13.718882 13.618157
1.6478339 12.293756 13.560693
1.644435 12.24601 13.551251
1.5913661 13.10321 13.634361
1.511071 13.651018 13.63273
1.553517 12.540163 13.634055
1.551397 12.501845 13.635167
1.461345 12.808824 13.66388
1.461341 12.716272 13.774563
1.460961 12.675102 13.814694
1.40017 13.469224 14.046501
1.3970881 13.415749 14.035317
1.393381 13.355293 14.016935
1.391899 13.282528 14.070013
1.387193 13.21106 14.039799
1.386021 13.122756 14.118602
1.384949 13.091921 14.129291
1.383779 13.003094 14.207306
1.386914 12.941743 14.357411
1.459663 9.4275389 28.886082
1.4536279 9.1276836 28.869743
1.457215 9.0259161 29.00975
1.451437 8.9415321 28.898323
1.449962 8.8457651 28.903503
1.447741 8.7447119 28.891327
1.446757 8.6951332 28.887968
1.445876 8.6036692 28.905697
1.452472 8.5636168 29.09351
1.460483 8.5321989 29.313757
1.465203 8.5208368 29.440262
1.285856 10.032847 28.662813
1.279673 9.6845379 28.654873
1.278648 9.5081692 28.713625
1.2769639 9.451437 28.69076
1.275933 9.4005089 28.684843
1.274284 9.2604856 28.704378
1.273689 9.2134008 28.709515
1.278011 9.2084322 28.843796
1.276413 8.601018 29.08478
1.997763 9.1465492 29.136312
1.997195 8.7515936 29.288446
1.75204 9.1548004 29.026707
1.75923 9.1109524 29.19619
1.757207 8.7081833 29.324888
1.761008 8.6858521 29.4132
-0.51982802 -19.108807 27.881435
-0.52200502 -19.210424 27.935108
-0.51971799 -19.194118 27.81983
-0.51546299 -19.213732 27.574167
-0.496986 -19.189514 26.568283
-0.71643102 -19.413408 27.51827
-0.71831101 -19.540701 27.515671
-0.69742602 -19.48167 26.641209
-0.92520601 -19.12327 28.022945
-1.113934 -19.478792 27.396982
-1.109004 -19.492174 27.237003
-1.106281 -19.494457 27.151485
-1.097989 -19.455881 26.922565
-1.09456 -19.489513 26.7938
-1.090888 -19.476418 26.689316
-1.0827579 -19.47965 26.435642
-1.078848 -19.461933 26.326719
-1.0755709 -19.453526 26.230698
-1.067088 -19.488733 25.941238
-0.32481799 -19.234823 27.914392
-0.31896999 -19.33115 27.413717
-0.317287 -19.357731 27.271732
-0.31573799 -19.343868 27.163528
-0.30199701 -19.216675 26.208946
-2.709142 -7.1740298 87.617523
-2.7098451 -7.312583 87.622185
-2.71048 -7.4509969 87.624634
-2.7118061 -7.8648791 87.614609
-2.7127719 -8.0042839 87.626137
-2.7126739 -8.1407614 87.605598
-2.7147689 -8.557066 87.616119
-2.7150011 -8.6944704 87.604668
-2.715765 -8.833477 87.608902
-2.7168751 -9.247036 87.586357
-2.7180369 -9.387413 87.601639
-2.718379 -9.6619024 87.573776
-2.7203009 -9.9416008 87.590858
-2.721061 -10.080836 87.593102
-2.7220631 -10.357674 87.582909
-2.723181 -10.634858 87.573952
-2.7243111 -10.912267 87.565964
-2.7252679 -11.052413 87.572617
-2.7267151 -11.331039 87.571358
-2.7277069 -11.608108 87.557198
-2.728662 -11.748425 87.562729
