# .PCD v0.7 - Point Cloud Data file format
VERSION 0.7
FIELDS x y z
SIZE 4 4 4
TYPE F F F
COUNT 1 1 1
WIDTH 1580
HEIGHT 1
VIEWPOINT 0 0 0 1 0 0 0
POINTS 1580
DATA ascii
0.37949201 2.25176 9.0391693
0.68574297 2.099108 8.9176884
0.43535101 1.9824539 9.1458044
0.38034999 2.2526381 9.0893497
0.68563199 2.0846491 8.9201136
2.176945 2.1328199 9.3062487
2.04194 2.4941499 8.9250259
2.5009811 2.591501 8.6047211
2.462678 0.463442 9.7376938
1.023708 2.125109 8.7746449
0.385259 2.2943599 9.3637152
1.021384 2.1035211 8.7543726
0.42636299 1.824082 8.8023911
0.37961701 2.1846049 9.0712833
0.431575 1.869285 9.0161228
0.37953699 2.169287 9.0719376
2.515141 2.5453849 8.6845112
2.0784421 0.12731101 10.138806
0.68266702 1.957718 8.9003305
0.37577501 2.0516529 8.8929024
2.3444221 0.88724101 9.5479403
2.4768491 0.22736 9.8249798
2.488318 0.155421 9.8821917
0.37896499 1.908825 9.1272202
2.518482 -0.44345599 9.6491184
0.37358901 1.758322 8.8620949
0.37295499 1.721861 8.8368607
2.1821351 1.618894 9.4872484
2.4680459 2.0020969 8.6774988
1.981078 -0.020529 10.135716
2.594126 -0.74691898 9.9840183
2.442934 -0.32691699 9.7190437
2.053112 -0.69098598 10.039437
2.4565959 -0.40058199 9.781847
2.063379 -0.76974303 10.096003
1.976869 -0.27326 10.123048
2.4592869 -0.47619 9.7953148
2.4448569 -0.552917 9.7321014
2.4328711 -0.072676003 10.077096
2.2246959 0.33624899 9.4830236
2.087672 1.39407 9.5104856
2.445056 -0.77924901 9.7320633
2.4278531 -0.151953 10.058008
2.218595 0.89130199 9.8240194
1.998125 -1.23827 10.234888
2.1871009 -1.882277 10.712082
1.732895 -0.77502698 10.737259
1.703678 -0.78848499 10.533202
2.008693 -1.4172159 10.284497
1.7945 -0.28393501 10.132772
1.648405 -0.86107099 10.146015
2.0886021 0.47270101 9.672411
2.6845031 0.113664 9.5756493
2.6850221 0.039597001 9.5834637
2.1930981 -2.3180349 10.682936
2.6835811 -0.035036001 9.5829649
2.565192 -2.006398 10.170769
2.689018 -0.108117 9.6089802
2.6861091 -0.183121 9.601512
1.857662 -0.84089702 10.554265
2.687624 -0.25728601 9.6108894
2.682759 -0.34711501 9.5949926
2.44119 -1.6860729 10.074409
2.101887 -2.310389 10.728264
2.6721661 0.0064019999 9.9010668
2.2656591 -0.77120697 10.18406
2.6731479 -0.070101 9.9100075
1.985575 -1.9059809 10.67649
1.738905 -1.959354 10.691514
1.733837 -1.987877 10.652072
2.261939 -0.92854202 10.161735
2.4410219 -1.648666 10.531296
1.7600631 -2.0618091 10.826318
1.7444839 -2.0804911 10.714027
1.751333 -2.103698 10.758879
1.972538 -2.06022 10.573734
1.727289 -2.146198 10.583189
1.986926 -2.1550131 10.650501
1.979486 -2.2467411 10.58926
1.66445 -1.986328 10.615696
2.5786321 -0.55218703 9.5394268
2.1681311 -3.0716591 10.974703
1.889383 -1.8765171 10.689357
1.891306 -1.9608769 10.691428
2.1750629 -3.3354659 10.951746
1.888448 -2.0412631 10.661442
2.551791 -2.7339699 10.426439
2.428582 -2.225193 10.395961
1.593506 -1.89604 10.574468
2.1635461 -3.403367 10.863685
1.873932 -2.11077 10.554444
2.010515 -2.7751999 10.687717
1.8875231 -2.2053709 10.630961
2.264462 -1.731233 10.117488
2.4376931 -2.5701859 10.379903
1.556397 -1.978996 10.776515
1.551947 -1.991377 10.739026
1.542843 -2.0485561 10.657786
1.8242691 -3.297071 11.03732
2.6879461 -1.334451 9.9636421
2.686619 -1.411194 9.952425
1.883069 -2.7078061 10.509511
1.822461 -3.49806 10.970827
2.1917951 -1.895722 10.207088
2.5931511 -3.6821539 10.380717
2.5397279 -3.427249 10.687145
2.5561359 -3.6960781 10.693143
2.5000191 -3.702105 10.408033
2.5059011 -3.7906361 10.410305
1.942259 -3.8147099 10.623972
2.520551 -3.988574 10.420441
2.478447 -3.6118021 10.847292
-0.058132999 -4.449122 11.010133
0.359534 -4.8296132 11.4048
-0.058683999 -4.4749222 11.028726
0.359065 -4.8326001 11.358972
0.36320201 -5.0152879 11.625954
0.79055101 -4.8501859 11.450944
1.205567 -4.9291 11.202735
0.788302 -4.8511419 11.399519
0.79402602 -4.910491 11.503248
-0.057156 -4.6481972 10.922364
0.358987 -5.0063248 11.235495
0.78169101 -4.8711772 11.240678
1.212191 -5.0439992 11.239447
-0.061815001 -4.772666 11.09804
0.35954899 -5.0705018 11.244718
-0.070051998 -4.9917769 11.408657
0.77278501 -4.9055438 11.022335
0.78202301 -5.0097451 11.185386
0.78858203 -5.0943332 11.296012
1.122923 -4.7888942 11.097394
0.36332601 -5.391223 11.375684
0.70897198 -4.949604 11.1491
1.132093 -4.8817558 11.186077
-0.068714 -5.1557908 11.308222
-0.069022998 -5.197659 11.31077
0.35921699 -5.325398 11.03016
1.208015 -5.3318801 11.055182
-0.069286004 -5.2205839 11.316631
0.35927701 -5.3425531 11.022876
1.141571 -5.0285592 11.255615
0.71364897 -5.108386 11.196191
-0.135028 -4.9363828 11.181886
1.138423 -5.048173 11.203005
0.69918299 -5.0465069 10.846283
-0.13754199 -5.0401292 11.242453
0.69966203 -5.0671592 10.848683
1.143924 -5.1429482 11.238305
1.590294 -5.089726 11.409492
0.79095 -5.419476 11.192717
0.70301098 -5.113688 10.913871
0.80133802 -5.5567541 11.364144
0.71972501 -5.3152008 11.254364
0.21698201 -4.7825489 11.478263
0.70429599 -5.2566938 10.875831
-0.139016 -5.2408962 11.237522
-0.13536499 -5.2291422 11.110552
0.21719299 -4.8178849 11.197001
0.79306501 -5.656074 11.119306
1.136007 -5.3422289 11.035098
1.127668 -5.316865 10.928868
0.64303398 -4.7807631 11.352437
0.21762501 -4.9880939 11.327175
1.927932 -4.9959641 11.231295
0.79298198 -5.7388802 11.072759
1.143451 -5.4645038 11.082291
-0.200482 -4.7501669 11.092344
0.217838 -5.0760722 11.447644
1.946241 -5.0600519 11.342328
0.79343098 -5.7594948 11.072061
1.1503561 -5.5170088 11.155121
0.63916701 -4.8284049 11.213483
0.638686 -4.857419 11.185486
0.71742898 -5.628603 11.029127
-0.21434601 -4.9814491 11.436888
0.71994603 -5.6698122 11.074088
0.63072997 -4.828516 10.957111
-0.213521 -4.9913058 11.409648
1.489684 -4.9708118 11.180531
0.63771802 -4.931756 11.12082
0.56690198 -4.5579748 11.264442
1.5155309 -5.093636 11.388826
0.73289001 -5.8646402 11.314493
1.499764 -5.0741601 11.238342
0.73233098 -5.892909 11.283694
0.72536302 -5.8399391 11.125412
1.503581 -5.1392522 11.248923
0.64593899 -5.1334472 11.273675
0.577555 -4.7955589 11.541007
0.643502 -5.1419129 11.194896
-0.208038 -5.1328282 11.20414
0.218924 -5.4456129 11.48861
0.64392197 -5.163116 11.197152
0.21890099 -5.4211068 11.381807
0.57961601 -4.94032 11.547664
0.21893901 -5.3945732 11.12807
1.8672889 -5.0757189 11.290523
0.57870197 -4.9470558 11.511043
0.99531102 -5.0194039 11.195982
0.218927 -5.3759141 11.038184
1.8592449 -5.1061521 11.214547
0.71938401 -5.9924922 10.874801
0.66828299 -5.5590811 11.745294
0.57740301 -4.9835558 11.446027
1.009964 -5.1525712 11.37946
0.71987301 -6.0138421 10.875425
0.56975502 -4.910748 11.202126
1.012262 -5.1828508 11.403961
-0.28563201 -5.0887098 11.385454
0.078667 -4.517446 11.096908
-0.281488 -5.06984 11.285575
0.071713001 -4.7831631 11.67336
0.64443201 -5.3858109 11.098133
0.071790002 -4.8006492 11.665056
1.425244 -5.0304551 11.227452
0.64471 -5.4054642 11.096259
0.93014598 -4.7822518 11.398755
1.011449 -5.334116 11.32099
0.58396202 -5.251327 11.55218
0.078538999 -4.7089009 11.088039
0.66042203 -5.6809392 11.436345
1.008798 -5.3530941 11.267741
0.92944801 -4.8650041 11.351389
0.076853 -4.818449 11.222405
1.4269511 -5.19138 11.176135
0.57737797 -5.2385139 11.315997
0.99326903 -5.312561 11.027118
0.50526398 -4.7875638 11.526464
0.078025997 -4.8004088 11.122448
1.4428231 -5.267653 11.312655
0.50756198 -4.8371701 11.606381
0.507514 -4.8710532 11.587675
0.075126998 -4.9697251 11.355707
0.56786501 -5.2024679 10.982906
0.073909998 -5.0286932 11.455241
0.97803998 -5.3209209 10.767323
0.50626498 -4.904705 11.513635
0.91601098 -4.9383321 11.075898
0.0089450004 -4.5713682 11.132891
0.501481 -4.869462 11.313403
0.075708002 -5.0475049 11.295794
-0.0022829999 -4.8662181 11.734802
1.004246 -5.5806761 11.080273
1.015529 -5.6674442 11.227318
0.495294 -4.8616529 11.034291
0.57323802 -5.4354682 11.055645
0.50386101 -5.0221939 11.343218
1.3680429 -5.0929408 11.362463
0.50881302 -5.1473212 11.504799
0.43751401 -4.8896308 11.718457
0.006364 -4.880425 11.224662
0.50462699 -5.1511898 11.309825
0.93752301 -5.3458581 11.28211
0.0022100001 -4.9852662 11.448012
0.93674099 -5.3579311 11.261947
0.43297499 -4.8899622 11.441543
0.00081699999 -5.090251 11.508509
0.432217 -4.8923631 11.393747
0.072984003 -5.4940438 11.477189
0.0026499999 -5.0704522 11.404702
1.717489 -5.113461 11.268128
0.49565801 -5.2171092 11.029806
0.49299401 -5.1906281 10.91959
0.076580003 -5.3267498 10.856268
1.270939 -4.9028258 11.186849
0.001635 -5.1599312 11.222296
1.278687 -5.019959 11.231447
0.430305 -5.1111422 11.384381
1.286157 -5.102232 11.286897
0.498615 -5.4280572 11.049053
0.93070298 -5.6474361 11.076563
0.43018401 -5.2576861 11.291324
0.43098101 -5.3071728 11.312047
0.42786399 -5.2745972 11.135138
0.42767099 -5.3028722 11.105954
0.428092 -5.3279228 11.117144
1.279969 -5.3335099 11.10862
0.425926 -5.3138528 10.988535
1.285074 -5.3898001 11.145289
1.2837 -5.400836 11.123278
0.54888499 1.352722 28.33021
0.54913801 1.2653379 28.354334
0.550372 1.227438 28.457117
2.5648279 1.183569 28.391956
0.54366702 1.137277 28.430372
2.5578921 1.089776 28.314028
0.542135 1.040632 28.304096
2.5620601 1.0483969 28.366491
0.54136002 0.99242902 28.238861
2.5609541 0.914581 28.360285
-0.455764 1.376837 27.937103
0.54190999 0.86211401 28.288271
2.562804 0.87134898 28.384628
-0.45778999 1.3391041 28.026049
0.54307002 0.822707 28.386509
2.564821 0.82814699 28.410894
-0.45648 1.291521 27.975309
0.54550397 0.78832197 28.592552
1.556994 1.087448 28.490658
-0.456626 1.160727 27.992178
-0.63414699 1.941321 28.316748
0.54554099 0.654055 28.597059
1.549541 1.033623 28.335827
-0.45774499 1.119873 28.042912
-0.63710397 1.9060431 28.420359
1.5486211 0.98813099 28.31852
-0.45843399 1.077775 28.075624
-0.63768101 1.863314 28.444281
1.5518939 0.85881698 28.393801
-0.45952699 0.94868302 28.131418
0.545035 0.42830101 28.552567
-0.45997599 0.90571398 28.153891
-0.460233 0.862257 28.16831
-0.64118201 1.650408 28.582811
0.545573 0.34023201 28.595848
-0.46117699 0.732068 28.217117
-0.63757598 1.507041 28.473795
0.54555202 0.205816 28.592251
1.3832639 0.900572 28.375757
-0.62364697 1.032999 28.043484
-0.63076001 1.003333 28.285599
-0.62924802 0.91206402 28.240778
-0.62615901 0.81819302 28.143805
-0.62702298 0.73168099 28.178253
-0.62806499 0.68929499 28.216366
-0.62711197 0.599558 28.19055
0.207978 1.521517 28.307009
-0.62618798 0.51013798 28.164404
0.207985 1.443769 28.461325
-0.625561 0.46522099 28.146254
-0.79964203 1.807815 28.262346
0.208021 1.38042 28.201283
-0.79960299 1.719283 28.270002
-0.97123301 2.496136 28.277864
0.20808201 1.2706079 27.892324
-0.79959297 1.630869 28.277336
-0.97123802 2.407691 28.28764
0.20809899 1.184181 27.910225
2.223 1.113934 28.328758
-0.79957199 1.586583 28.280922
-0.976219 2.3762529 28.411648
0.208122 1.1427619 27.949034
2.2197809 0.97844797 28.291006
-0.80381799 1.462652 28.410816
-0.976206 2.242873 28.425665
0.208167 1.014657 28.009148
2.221797 0.93571198 28.321449
-0.80379498 1.418157 28.414139
-0.97619098 2.1983509 28.430212
0.208193 0.971488 28.023746
2.224524 0.89341903 28.361788
-0.79949099 1.365213 28.297764
-0.97118199 2.1418929 28.31539
0.20821901 0.92783302 28.030289
1.2122951 1.195379 28.254953
-0.79802299 1.229759 28.26713
-0.97615701 2.0203371 28.447659
0.20827299 0.79599702 28.031488
1.216087 1.157817 28.363577
2.22262 0.71466303 28.343124
-0.79607201 1.182029 28.21623
-0.97114599 1.964602 28.332485
0.20830099 0.75240397 28.039755
1.210995 1.104583 28.22278
-0.79526198 1.136465 28.19717
-0.971129 1.920228 28.336596
0.208327 0.71269399 28.129862
-0.79443002 1.002844 28.183401
0.208507 0.36791301 28.354858
-0.95104003 1.483658 27.892242
-0.799187 0.70041299 28.337872
-0.96100402 1.458207 28.134699
0.20857701 0.27439401 28.21007
-0.79912698 0.56740701 28.344
-0.960967 1.326146 28.1444
0.20864999 0.14202499 28.214188
-0.80337501 0.527888 28.465742
0.208682 0.100929 28.335398
-0.80334198 0.43886799 28.469339
0.20872299 0.01234 28.337652
0.20879599 -0.076127 28.353672
0.20883401 -0.121516 28.298588
-0.80320603 0.21606 28.47718
-0.96166098 0.97485799 28.187212
0.20887899 -0.209372 28.34214
-0.96318799 0.88868397 28.230169
-0.95892 0.79504901 28.133135
-0.959557 0.75180501 28.151379
-0.125664 1.408832 28.238033
-0.122696 1.347091 27.993916
-0.122127 1.300081 27.951174
-0.28983599 2.211915 27.993784
-0.121944 1.168143 27.948168
-0.29334801 2.1000509 28.204054
0.87810397 1.501377 28.21266
1.891965 1.0636441 28.407875
-0.121991 1.124761 27.957022
-0.29333201 2.055887 28.208384
1.884762 1.012105 28.288994
-0.122085 1.081601 27.969801
-0.29331601 2.0117171 28.212645
-0.122845 0.95419598 28.045628
-0.293295 1.879306 28.224966
-0.122985 0.91105402 28.062136
-0.29327801 1.8351099 28.228951
0.87825698 1.236581 28.2339
-0.123006 0.86733103 28.068592
-0.29325899 1.790908 28.232864
0.88036901 1.198069 28.324663
-0.12319 0.73659199 28.095499
-0.29323199 1.6584049 28.244148
0.87709099 1.056787 28.193439
0.87716401 1.0127701 28.198126
0.87823498 0.97112697 28.244665
-0.290416 1.29403 28.119621
-0.121973 0.29413399 28.032253
-0.288625 1.199374 28.027924
-0.289242 1.157855 28.066757
1.659024 1.179077 28.294001
-0.124749 0.169396 28.276377
-0.288405 1.067222 28.026449
-0.127526 0.086888 28.518814
-0.28917199 0.98218602 28.077715
0.71377599 1.334386 28.353872
1.6594011 1.002413 28.311056
-0.12748501 -0.0022780001 28.521042
-0.28954101 0.89563602 28.104717
0.71514601 1.250926 28.435829
1.659116 0.91359103 28.310177
-0.289799 0.852507 28.123135
0.71541899 1.207342 28.452795
1.662527 0.872904 28.378456
-0.125811 -0.138542 28.391954
-0.28995699 0.76504999 28.139797
0.71375901 1.112159 28.362797
-0.29003701 0.67735898 28.15015
0.71203297 1.017585 28.270439
-0.290719 0.635158 28.1922
0.711097 0.97015899 28.219173
0.711649 0.88336098 28.252174
0.71587902 0.80742401 28.492544
0.71772498 0.76801097 28.596699
1.81417 -8.5707932 17.500902
2.4527941 -7.9931159 18.405079
1.807905 -8.5664549 17.419706
2.8135829 -6.7330451 18.002178
2.471173 -8.2814941 18.455029
2.816817 -6.8242011 17.994104
2.4615369 -8.2774115 18.364223
2.811311 -6.8945112 17.925714
2.4588881 -8.5512419 17.115776
2.8174901 -6.9649272 17.947264
2.4551721 -8.5644407 17.074654
2.8173001 -6.9922619 17.93553
2.811986 -7.0347061 17.878323
2.814888 -7.0972052 17.876959
2.8054259 -7.2937722 17.726456
1.688835 -8.6646338 17.287954
2.3790369 -8.5667915 17.429783
2.8032939 -7.3977432 17.667978
1.684968 -8.6963816 17.215879
2.3709791 -8.564187 17.352365
2.3504119 -8.5682678 17.149223
2.3557019 -8.2837973 18.49185
2.3412199 -8.5606203 17.062986
2.343138 -8.2673006 18.371714
2.8089111 -7.5489631 17.649836
2.3365591 -8.5695543 17.012815
2.3359389 -8.2697344 18.297493
2.3289039 -8.6191931 16.912643
2.3244679 -8.6285067 16.864288
2.8120739 -7.6936688 17.613853
2.3549299 -8.8795252 15.966962
2.811414 -7.827702 17.551018
2.2870719 -8.3684454 17.753965
1.644279 -8.881382 16.526224
2.275965 -8.4084702 17.621323
1.641288 -8.939579 16.450102
2.2724111 -8.4221582 17.578335
2.278949 -8.4740105 17.620605
2.811945 -7.9915261 17.483038
2.266124 -8.5060673 17.47333
2.2608521 -8.5126743 17.415829
2.251364 -8.5294237 17.309887
2.812382 -8.2080603 17.38817
2.2460189 -8.9258652 15.926409
2.240983 -8.9540663 15.860016
2.8099079 -8.0172634 18.397434
1.608763 -9.1646662 15.840041
2.8120949 -8.0519361 18.400616
1.605741 -9.1703434 15.791678
2.8114979 -8.1070709 18.371935
2.2728951 -9.2831554 14.939838
2.811763 -8.1928558 18.336803
2.266968 -9.3264732 14.854776
2.2164249 -9.0690832 15.546272
2.2665911 -9.3475819 14.837799
2.814317 -8.3417559 18.291983
2.25455 -9.3864737 14.694718
2.8118041 -8.4469833 18.223577
1.460282 -8.8181648 17.153032
1.512633 -9.1596689 16.096416
1.45092 -8.8969173 17.045988
2.0819011 -8.3143225 18.136421
2.727598 -8.3735418 17.602591
1.51086 -9.1724911 16.06027
1.448512 -8.9068785 16.999022
2.095257 -8.6361542 16.847618
2.0663421 -8.3334036 17.948668
1.445359 -8.9632521 16.913626
2.090487 -8.6418314 16.792055
1.442951 -8.9727907 16.866659
1.440938 -8.98487 16.825068
2.077673 -8.6898012 16.625488
1.435282 -9.0230045 16.70562
2.0747261 -8.7026386 16.586102
1.432214 -9.0274506 16.64979
2.073277 -8.7471752 16.546576
2.700841 -8.5854826 17.27676
1.4290971 -9.0565748 16.579073
2.061708 -8.7475185 16.417826
1.4273109 -9.0945864 16.526131
2.0605841 -8.7677937 16.394485
1.4245059 -9.1002417 16.473909
2.056906 -8.8018084 16.335247
1.418224 -9.1063938 16.360638
2.0483749 -8.8141327 16.233372
2.0419509 -8.8599596 16.136488
1.419615 -9.240118 16.306484
2.03423 -8.8747072 16.041815
1.990307 -8.543376 16.965157
1.419809 -9.2909403 16.279602
2.031363 -8.9108038 15.98955
1.9874229 -8.5824747 16.911636
2.0271981 -8.9164152 15.939591
1.983317 -8.5900116 16.859703
1.975486 -8.6063805 16.75948
1.9727941 -8.6454744 16.707664
1.353137 -9.2685785 17.10611
1.569311 -10.431595 16.221279
1.350475 -9.274353 17.051762
2.0447481 -9.2853041 14.756993
1.4229 -9.6324301 16.125269
1.347212 -9.2754183 16.988558
2.037286 -9.3172598 14.654973
1.911696 -8.50914 17.387465
1.426756 -9.7341766 16.129896
1.346652 -9.348259 16.935566
1.903379 -8.4974585 17.289986
1.428838 -9.7741051 16.141731
1.342428 -9.3414478 16.858244
1.93942 -8.7689857 16.248165
1.902932 -8.5219336 17.272299
1.433563 -9.8338614 16.18815
1.439011 -9.9482279 16.21237
1.342447 -9.4435339 16.798351
1.887358 -8.5546865 17.062073
2.5350311 -8.7516518 16.734392
1.341705 -9.4631701 16.772272
1.885838 -8.5737076 17.033485
2.5323751 -8.7681627 16.702124
1.441993 -10.019789 16.219513
1.967821 -9.1840944 15.108406
1.449695 -10.151996 16.271809
1.341729 -9.5646667 16.711641
1.45522 -10.218887 16.327457
1.458461 -10.293051 16.336945
1.3461829 -9.7263241 16.699295
1.948275 -9.2259665 14.857484
1.348688 -9.7716436 16.720078
1.955766 -9.3082361 14.892461
1.956363 -9.3566189 14.868811
1.346678 -9.8561487 16.627947
1.351591 -9.9211893 16.683184
1.9523751 -9.4045191 14.791967
1.8787121 -9.1466999 15.303585
2.433706 -8.9846754 15.694542
1.878889 -9.1942234 15.276976
2.4288781 -9.0146284 15.633482
1.877645 -9.2111359 15.251518
1.886575 -9.2486601 16.682253
1.877344 -9.2792358 15.206088
1.890258 -9.3440285 16.675341
1.870936 -9.2691183 15.133971
1.8698829 -9.2867088 15.110175
1.869584 -9.3999891 15.035483
0.87612897 -2.2553761 7.94172
0.87601799 -2.2795751 7.9347959
0.87706298 -2.3065569 7.9413929
1.1578929 -2.2445979 7.8949761
1.1553119 -2.2523229 7.871141
1.157994 -2.2933691 7.8849812
1.159445 -2.308116 7.8940892
0.83106703 -2.1928561 7.9897742
1.62964 -2.3257649 7.8900452
0.83361 -2.2360599 8.0138388
0.827613 -2.233253 7.935133
0.546992 -2.3155351 8.0177279
0.839535 -2.2758529 8.0832129
0.55441803 -2.3893099 8.1819115
0.83234799 -2.294369 7.9838052
0.54759699 -2.3676131 8.0190182
0.83268499 -2.307555 7.9851742
0.54714501 -2.3897851 8.0019417
1.133729 -2.2929111 8.097765
0.54603201 -2.4085491 7.9692392
0.82537001 -2.336833 7.8812079
1.118206 -2.2779701 7.9608951
0.54606098 -2.420902 7.9665251
0.82493502 -2.3477819 7.8727589
1.118703 -2.3033111 7.9597068
0.54569203 -2.443258 7.9512529
0.82420897 -2.3699059 7.8577242
0.546754 -2.4732871 7.9690771
0.54419202 -2.4716909 7.9059081
0.54424202 -2.4960599 7.9002242
0.54338098 -2.51546 7.8731208
0.54284602 -2.536447 7.8537021
0.54228997 -2.5453191 7.8371968
0.498864 -2.1347699 8.0527363
1.344588 -2.2493751 7.8552222
0.50473797 -2.2031071 8.2046738
1.3559901 -2.2779679 7.9302249
0.50103801 -2.1957309 8.1003151
1.35488 -2.2885959 7.9199762
0.50070602 -2.206342 8.0881367
0.49991801 -2.2390299 8.0573578
1.057716 -2.2210231 7.8556671
0.49865401 -2.2442861 8.0196733
1.0605201 -2.2384629 7.8785601
0.49839401 -2.2550981 8.0093927
1.068924 -2.2911019 7.9469838
0.49896899 -2.295099 8.0155764
1.069592 -2.304667 7.9502921
0.49820799 -2.3029339 7.9915452
0.742773 -2.1866779 8.1034498
0.49816301 -2.3149011 7.9870481
0.74450099 -2.204098 8.1265755
0.49752101 -2.347604 7.9597468
0.74274099 -2.2363861 8.0918932
0.497118 -2.3573461 7.9454269
0.74159002 -2.2454529 8.0718327
0.49644801 -2.377449 7.9206119
0.74111199 -2.2687681 8.059041
1.30172 -2.2725301 7.8880992
0.45767701 -2.2093239 8.2618113
0.73998803 -2.2901599 8.0364456
1.300656 -2.2831399 7.8778439
0.45399401 -2.1990371 8.1376438
0.73805201 -2.296592 8.0046005
1.317333 -2.3322761 7.9910359
0.453381 -2.2199669 8.1112347
0.73966998 -2.3261559 8.0229206
0.45259699 -2.2397261 8.0789309
0.73710603 -2.3427441 7.9787002
0.451864 -2.259553 8.048501
0.73676097 -2.3660741 7.9675798
1.0171289 -2.2528701 7.9170108
0.45177099 -2.2712409 8.0421104
0.73678797 -2.3784211 7.964941
1.016174 -2.2753911 7.9023218
0.45224401 -2.2989681 8.0508204
0.73619002 -2.4009509 7.9498582
1.015816 -2.2989221 7.8933721
0.45145199 -2.318099 8.0182886
1.0221 -2.3238361 7.9512029
0.45142001 -2.3301179 8.0137691
0.450636 -2.349138 7.9812112
0.45014399 -2.3699441 7.9583411
0.45041201 -2.3839779 7.963511
0.40808299 -2.1881621 8.2440424
0.40441099 -2.171663 8.0905399
0.40424499 -2.1826711 8.0803614
0.40388301 -2.2165699 8.0555735
0.40323699 -2.2235169 8.0257349
0.40283099 -2.232368 8.0056896
0.40290201 -2.269448 7.9983168
0.40316999 -2.2838991 8.0056181
0.62848198 -2.1640389 8.0951128
0.403052 -2.2950649 7.9972439
0.627168 -2.1718011 8.067275
0.401923 -2.321523 7.9407272
0.62857902 -2.2140729 8.0856867
0.40195 -2.3338289 7.9381628
0.63004899 -2.2319291 8.1107426
0.40190101 -2.357429 7.9290328
0.62957799 -2.2550001 8.0960379
0.40132999 -2.376296 7.898416
0.62684798 -2.26949 8.0382252
1.204217 -2.275975 7.8754482
0.625121 -2.275219 8.0024624
1.2060061 -2.3030679 7.8840008
0.62351602 -2.2934511 7.9661169
1.207804 -2.330364 7.8925028
0.626046 -2.3279271 8.0079861
0.62640202 -2.3538489 8.0086422
0.62570697 -2.363337 7.9923568
0.918782 -2.253026 7.8815498
0.62504101 -2.3851421 7.9734211
0.92078799 -2.2817149 7.8980451
0.62436599 -2.4067049 7.9543829
0.927055 -2.308095 7.9638162
0.457477 -12.443657 14.509679
0.457414 -12.457342 14.480445
0.45689401 -12.482508 14.374231
0.45709899 -12.508746 14.36033
0.46017501 -12.672553 14.510266
0.45721501 -12.579799 14.264549
0.45774299 -12.621445 14.268748
0.45781499 -12.641071 14.246985
0.45745701 -12.672177 14.149676
0.45704401 -12.668064 14.100612
0.456469 -12.655968 14.042528
0.45678401 -12.718711 13.983058
0.456532 -12.722014 13.943146
0.45661399 -12.757327 13.896328
0.456164 -12.766025 13.819572
0.45604599 -12.775561 13.787195
0.456101 -12.808977 13.738785
1.015958 -12.725158 14.447267
0.45630199 -12.879422 13.646223
0.45705399 -12.931652 13.661093
0.45834601 -13.025563 13.678663
0.45965701 -13.120891 13.697195
1.00851 -12.776058 14.146987
0.460931 -13.199285 13.73932
1.014402 -12.925953 14.186353
0.462951 -13.345168 13.767962
1.008405 -12.854631 14.060381
0.46382001 -13.403538 13.787495
1.006892 -12.851477 14.012764
1.00528 -12.886216 13.920996
1.004112 -12.887974 13.879463
0.46173599 -13.372459 13.542621
1.002771 -12.886972 13.834976
0.46225101 -13.412881 13.542968
1.133275 -13.444627 13.870288
1.000591 -12.931241 13.712226
0.99832702 -12.973139 13.588002
0.996898 -12.969972 13.542232
0.995987 -12.974808 13.505328
0.99437201 -13.006351 13.413719
0.896882 -12.435574 14.43777
0.99432701 -13.024497 13.39148
0.90346402 -12.569067 14.55318
0.99604601 -13.089238 13.377499
0.90244102 -12.592454 14.489763
0.79312903 -12.153566 15.009243
1.002192 -13.224084 13.437398
0.89778799 -12.552696 14.351401
1.004833 -13.284825 13.459824
0.89612901 -12.544127 14.296121
1.0079449 -13.372024 13.467992
0.89517897 -12.567795 14.234481
1.013234 -13.494098 13.511844
1.016525 -13.584532 13.521944
0.89425403 -12.631383 14.130925
1.018739 -13.638918 13.536184
0.89244503 -12.619457 14.072837
0.89150298 -12.642289 14.011233
0.89092398 -12.671288 13.957112
0.88963401 -12.667997 13.909756
0.88824499 -12.682203 13.839171
0.88796502 -12.715835 13.791023
0.88749301 -12.726671 13.760221
0.90430498 -13.316985 13.765834
0.90199602 -13.331702 13.653917
0.67924601 -12.350177 14.653304
0.89534599 -13.265785 13.458145
0.89311397 -13.280078 13.348425
0.67612898 -12.38989 14.42579
0.67666698 -12.442309 14.398268
0.67503899 -12.439709 14.304595
0.67384601 -12.428606 14.246321
0.67342299 -12.456053 14.189571
0.791269 -13.170171 13.809031
0.67245102 -12.469167 14.116055
0.67233199 -12.503868 14.068409
0.57201999 -12.389839 14.862944
0.67169398 -12.506262 14.027111
0.57183301 -12.403014 14.832098
0.67051899 -12.513358 13.947626
0.570997 -12.41414 14.751678
0.67050099 -12.550065 13.902936
0.57084501 -12.447359 14.699293
0.67011601 -12.558582 13.869263
0.57046503 -12.453884 14.660669
0.66885102 -12.580904 13.765245
0.57024401 -12.503164 14.581994
0.668262 -12.583822 13.725606
0.569902 -12.510646 14.544931
0.66802901 -12.595914 13.696479
0.56952202 -12.516769 14.506338
0.66788 -12.646326 13.625442
0.57135302 -12.632892 14.509011
0.67014003 -12.723533 13.669272
0.56764102 -12.528682 14.338271
0.56570899 -12.482995 14.238438
0.56529599 -12.541619 14.129176
0.56499201 -12.549366 14.093845
0.56406802 -12.57198 13.987874
0.56395698 -12.585924 13.960162
0.68461001 -13.304866 13.836803
0.56373 -12.595888 13.927901
0.56257099 -12.609446 13.813012
0.68154299 -13.294906 13.655424
0.56257701 -12.626993 13.789819
0.678572 -13.250755 13.524264
0.56261897 -12.663146 13.74483
0.56196803 -12.675398 13.67285
0.67608601 -13.305612 13.290807
0.67730898 -13.373268 13.278443
0.69356102 -13.973274 13.514104
0.57427502 -13.371618 13.754439
1.1035531 51.421776 40.276955
1.104931 51.461323 40.438259
1.107339 51.560505 40.64642
1.111791 51.699276 41.15107
1.114356 51.805965 41.368042
1.116027 51.86031 41.544552
1.1284339 52.2365 42.930965
1.131068 52.342911 43.155239
1.133268 52.42395 43.359734
1.137219 52.517479 43.854534
1.141539 52.629047 44.369076
0.71584702 51.567455 39.932716
1.146679 52.827045 44.818504
0.71793503 51.737141 40.322887
1.149031 52.912933 45.033562
0.71895897 51.819675 40.5173
1.1510659 52.936565 45.340858
0.71971202 51.858528 40.810387
1.156003 53.118618 45.784821
0.72166198 52.011051 41.193943
1.158327 53.155727 46.108097
0.72237802 52.043823 41.486202
1.1605639 53.232063 46.320171
0.72348702 52.132713 41.690113
0.72547197 52.285446 42.080456
0.72627199 52.323811 42.382324
0.72729802 52.402527 42.581635
0.72914797 52.519161 43.08736
0.73023099 52.602257 43.292927
0.73146403 52.700352 43.511471
0.73769802 53.118214 44.985058
0.73890501 53.210194 45.205467
0.74027503 53.318462 45.440414
2.7509761 52.351372 42.945599
2.760649 52.493507 43.198765
2.7744751 52.661221 43.613213
2.7830729 52.720463 43.941513
2.7896841 52.796467 44.144775
2.7932019 52.686699 44.47784
2.809037 52.951336 44.840801
2.8187671 53.089333 45.099464
2.3063519 51.870033 41.202187
2.312124 51.959538 41.405495
2.3182721 52.057957 41.616604
2.3281469 52.138855 42.084461
2.3352311 52.25885 42.315559
2.340368 52.329845 42.508442
2.3526771 52.465462 43.028713
1.868102 51.200119 38.869755
2.3589389 52.562607 43.245426
1.871505 51.257465 39.039932
2.363694 52.621967 43.432301
1.876801 51.373505 39.254875
1.88457 51.468601 39.712429
1.888889 51.552536 39.905781
1.892639 51.570045 40.17905
1.901628 51.745991 40.576363
1.9060431 51.830849 40.773746
1.910042 51.85265 41.055157
1.918712 52.014561 41.448311
1.923164 52.047619 41.742393
1.928387 52.154438 41.96175
1.936689 52.300755 42.3494
1.94098 52.325291 42.641899
1.945739 52.415604 42.851749
1.954986 52.533089 43.361168
1.959993 52.629215 43.578651
1.9647959 52.718605 43.791481
1.974334 52.838852 44.312462
1.979183 52.927814 44.527885
1.984284 53.023911 44.750088
1.520597 51.857174 41.493259
1.525949 51.924557 41.949165
1.5297951 52.027569 42.166332
1.533561 52.1269 42.381428
1.537562 52.225243 42.868156
1.541587 52.335072 43.094662
1.54425 52.342392 43.377079
1.5516289 52.53223 43.811008
1.55471 52.602402 44.008877
1.55795 52.629025 44.312386
1.565506 52.821495 44.756165
1.568661 52.841846 45.058823
1.5731339 52.963856 45.305065
1.58017 53.131187 45.735683
2.290247 1.195682 11.203019
1.713032 1.926303 12.445424
1.7163481 1.912485 12.476708
1.714914 1.851934 12.476962
1.713732 1.8305579 12.471151
1.7139699 1.811506 12.476996
1.7078021 1.743569 12.43775
1.7002209 1.635259 12.3937
1.701645 1.6180789 12.409013
2.218981 1.33349 11.371451
1.767048 2.0788779 13.582868
2.2129719 1.239121 11.351733
2.2256911 2.283644 13.84627
1.762167 2.3338101 14.266722
1.749367 2.2873299 14.154583
2.7854021 1.407308 11.53128
1.945557 1.619011 11.989494
1.929935 1.580304 11.88604
1.9180059 1.546623 11.807797
1.903228 1.473274 11.716737
1.895561 1.4456069 11.667465
1.891872 1.422942 11.645424
2.1231649 1.3835829 11.419511
1.889311 1.365633 11.637533
2.073374 2.109885 13.382346
1.882498 1.339505 11.593875
1.880229 1.318808 11.581394
2.1060719 1.276974 11.330067
1.877388 1.261619 11.571038
1.966606 1.851874 12.642365
1.8765399 1.242648 11.568189
1.948361 1.806096 12.516138
1.875399 1.2055089 11.566264
1.931736 1.743855 12.405216
2.106714 1.1895159 11.348831
1.9042341 1.667115 12.216263
1.680889 2.2875669 14.329268
1.890347 1.6290129 12.120679
1.66394 2.209352 14.174711
1.879444 1.576671 12.04991
2.1206751 1.025444 11.462491
2.6911399 1.4111201 11.597042
1.897857 0.977759 11.778753
2.0705049 2.3330231 13.972536
2.0387471 2.2610669 13.740564
1.51641 1.663729 12.826886
1.969227 2.0895531 13.235707
1.5145971 1.64052 12.812914
1.942416 2.027823 13.039951
1.894176 0.86453301 11.768162
1.9309601 1.990077 12.958673
2.0792999 0.81657898 11.248362
1.892935 1.8731329 12.687056
1.899569 0.795883 11.814857
1.880179 1.83456 12.595701
1.870806 1.80123 12.529557
2.087213 0.73510402 11.308642
2.0143111 1.348706 11.419248
1.5884711 2.262006 14.307001
1.5714149 2.204206 14.135945
2.1844671 -0.048236001 11.340345
2.004127 1.23101 11.371378
1.807255 1.558247 12.083543
1.806471 1.538368 12.081172
1.8004839 1.5115 12.039732
2.0866001 0.54134101 11.327161
1.945039 2.1871259 13.677174
1.4389 1.709723 12.81466
1.813305 1.91036 12.66043
1.441547 1.674734 12.849502
1.441166 1.654006 12.84925
2.0882261 0.36608601 11.354541
1.804063 1.177894 12.123915
1.4751 2.1026609 14.03166
2.0958791 0.192974 11.416618
2.0857949 0.100201 11.359948
2.479809 1.557673 11.608061
2.45245 1.440686 11.482209
1.986272 0.31451899 11.368834
1.986601 0.226336 11.378176
2.4808941 0.38503999 11.22914
2.074621 3.3776791 9.8878469
2.0798719 3.3126619 9.9483519
2.0767651 3.2287841 9.9626122
2.070987 3.1392331 9.9614553
2.0591929 3.0373869 9.9263058
2.062453 2.967061 9.9734135
2.0510409 3.6855941 10.251914
2.0618651 2.717706 10.059168
2.0774479 2.5896621 10.198956
1.7006871 3.5440099 10.097982
1.696033 3.515223 10.073521
1.694346 3.4794199 10.075553
2.056993 2.474262 10.109333
1.69949 3.46245 10.123272
1.699439 3.431073 10.136109
1.695878 3.4055641 10.118667
2.066298 2.4118619 10.186334
1.692026 3.3636589 10.105658
1.693069 3.335288 10.125542
1.689781 3.3107171 10.109715
2.073601 2.345072 10.251632
1.927729 3.579232 10.136282
1.685114 3.2668569 10.090801
2.0705431 2.260464 10.257781
1.909965 3.4556091 10.061455
2.086211 2.2057819 10.369549
1.909264 3.3758891 10.089726
1.734863 2.7469959 10.172609
1.734283 2.729917 10.174184
1.732282 2.709728 10.166335
2.0931709 2.1199701 10.435941
1.898662 3.256366 10.062835
1.735931 2.6703689 10.206507
1.733647 2.649601 10.196655
1.722553 2.610023 10.128358
1.881814 3.138191 9.9899282
1.73615 2.5916231 10.234164
1.735288 2.573911 10.233591
1.7361079 2.5439661 10.249315
1.876938 3.0493579 9.9897842
1.736658 2.5132329 10.263103
1.738354 2.5007529 10.279425
1.736902 2.466017 10.27978
1.7374541 2.435159 10.293334
1.738866 2.4219761 10.307664
1.626722 3.7132061 10.515297
1.616437 3.069005 10.13514
1.8907551 2.8465509 10.16194
1.879614 2.7438681 10.11989
1.617263 2.866318 10.21654
1.78923 2.1572731 10.748732
1.613849 2.8261709 10.203179
2.0081251 2.115478 10.520328
1.9135751 2.6560111 10.386429
1.616146 2.784358 10.236364
1.616123 2.7524979 10.247135
2.013453 2.025681 10.57848
1.901227 2.5348859 10.339794
1.61789 2.693121 10.281532
1.616315 2.673449 10.275472
1.882628 2.4186549 10.247288
1.88078 2.335639 10.259745
1.617771 2.5491371 10.327848
1.904952 2.3003509 10.436818
1.9084949 2.225636 10.482571
1.929942 2.0987861 10.664259
1.671183 2.2181389 10.849448
2.3332231 2.8426371 10.44372
2.459429 2.195358 10.777903
2.3111751 2.2428811 10.521986
2.3103459 2.143842 10.545079
0.379942 9.704505 6.3756018
0.37844601 9.604619 6.3588772
-0.058672 10.031179 6.5685401
-0.054009002 9.8196297 6.4851689
0.82586002 9.913435 6.6466098
-0.052632999 9.738266 6.4801302
0.81893802 9.7861309 6.5902338
0.81798297 9.7520933 6.6143689
-0.055034999 9.7928629 6.581635
-0.053915001 9.7216635 6.5824008
0.81980699 9.7567415 6.6855488
0.75606799 10.016421 6.6306138
-0.058880001 9.8613033 6.761858
0.31062001 9.9229174 6.5255051
0.30986899 9.8426228 6.4995909
-0.129164 9.9287844 6.494956
0.31057 9.9145699 6.5658379
0.742459 9.6827526 6.6068249
-0.127722 9.8455429 6.5123858
-0.134371 10.026615 6.6681418
0.312695 10.130493 6.8133669
0.75190401 9.8218203 6.808599
0.31310999 10.17 6.9083748
0.75513798 9.8752413 6.865828
-0.128443 9.7913303 6.6148381
0.31207201 10.059279 6.8626332
0.74720901 9.71313 6.7853141
0.31182799 10.031678 6.868741
0.75785202 9.8912401 6.9695368
-0.121454 9.5249739 6.5386429
0.76369703 9.9943609 7.0600209
0.770935 10.124009 7.1682978
-0.129711 9.7530127 6.727529
0.74106097 9.5231714 6.8452382
-0.13222601 9.7907524 6.8203959
-0.201977 9.9027309 6.5110331
0.67799199 9.9080744 6.5818348
-0.195888 9.7106476 6.4610329
-0.19674399 9.6958523 6.5190749
-0.207607 9.9466829 6.721076
-0.204386 9.8275223 6.7151909
-0.199578 9.6938648 6.65342
-0.27037999 9.7935972 6.4489708
-0.27887401 9.9665394 6.5759888
-0.20154101 9.6684494 6.7741752
-0.28320301 10.048565 6.6486049
0.60651201 9.9737635 6.5582008
-0.20125499 9.6235189 6.8137708
-0.205974 9.7157965 6.9207048
-0.27073699 9.6822863 6.6052909
0.60377401 9.8527927 6.6210089
-0.27176201 9.6803293 6.6493239
0.61299598 10.065967 6.8454251
0.97263002 9.9401436 6.5179429
0.090708002 9.978981 6.5820451
0.090912998 9.924552 6.5943189
0.536327 10.084228 6.6001248
0.089702003 9.9426966 6.7203741
0.53453398 10.01092 6.6013899
0.088214003 9.9657183 6.8744931
0.52920097 9.7913218 6.6029119
0.54103303 10.154793 6.9001021
0.015041 10.045907 6.6894889
0.452939 9.6794147 6.3899541
0.450326 9.5617237 6.3408942
0.46441501 10.126949 6.7992911
0.45982099 9.8977957 6.7729969
1.695805 -24.389648 17.977549
1.696968 -24.456699 17.911442
1.6986049 -24.507071 17.890812
1.698305 -24.574293 17.766703
1.69744 -24.584248 17.716246
1.696674 -24.595715 17.666981
1.694671 -24.634266 17.522699
1.699218 -24.731262 17.535324
1.5250289 -24.63175 17.809921
1.521583 -24.708176 17.519466
1.5267971 -24.872608 17.465559
1.521197 -24.792463 17.351034
1.51922 -24.846174 17.161531
1.518661 -24.858185 17.113304
1.526605 -25.094099 17.051191
1.5360301 -25.313303 17.088879
2.3998671 -24.364414 17.956139
2.414046 -24.569107 17.992561
2.402859 -24.498272 17.823874
2.3986959 -24.528278 17.672808
2.416476 -24.872145 17.576799
2.4360509 -25.112026 17.690884
2.439539 -25.175306 17.678045
2.425724 -25.121817 17.409327
1.360623 -25.100689 17.615572
1.17474 -24.570734 18.125744
1.172263 -24.53182 18.037905
1.166847 -24.441988 17.854328
1.1668611 -24.486326 17.771446
1.165801 -24.48185 17.710382
1.1660661 -24.532009 17.632116
1.169768 -24.667688 17.616117
1.169518 -24.704575 17.527927
1.174997 -24.863214 17.584961
2.247 -25.19701 17.274206
2.248023 -25.257303 17.201832
2.250942 -25.340252 17.145063
0.98963898 -24.303543 18.017696
0.99385798 -24.49482 17.986544
0.98992401 -24.396128 17.854929
0.98983902 -24.414314 17.810602
2.0668919 -24.951962 17.622917
0.98888999 -24.447304 17.662123
0.98880601 -24.465143 17.617779
0.98819202 -24.466749 17.561638
0.99385297 -24.700876 17.559637
1.8310699 -24.636042 18.315563
0.99821299 -24.854797 17.613089
2.0706279 -25.217855 17.293644
0.81361097 -24.327381 17.924351
0.81408697 -24.364916 17.894476
0.81564498 -24.463799 17.852379
0.814758 -24.466328 17.738527
0.81480402 -24.505302 17.652031
0.81470799 -24.519899 17.60523
0.81394202 -24.526196 17.495153
0.81353599 -24.546486 17.395716
0.82545102 -25.125748 17.466513
0.63868499 -23.427856 20.553043
-0.457688 -23.385098 20.972984
0.644391 -23.908966 20.399162
0.64561403 -23.993706 20.408543
0.64664102 -24.087521 20.361391
-0.454449 -23.676804 20.585236
-0.45416701 -23.746883 20.518274
-0.449204 -23.732655 20.249895
-0.45395601 -23.939571 20.365604
0.64395702 -24.130472 19.765203
0.45915601 -23.540751 20.908045
0.459115 -23.559935 20.794729
0.45929101 -23.59934 20.700153
0.460042 -23.679358 20.706852
0.46040699 -23.757172 20.517191
0.46104699 -23.826723 20.514019
0.462697 -24.031431 20.371208
-0.63626099 -23.94578 20.316381
0.27518299 -23.488281 21.185066
0.27524599 -23.463848 21.096584
0.275509 -23.420177 20.860113
-0.62687099 -23.912708 19.907511
0.27575499 -23.458668 20.829811
0.27811199 -23.851072 20.596163
0.278732 -24.012539 20.673216
0.278743 -23.837193 20.263348
-0.82052302 -23.673544 20.595179
-0.82236302 -23.752131 20.600145
0.28060299 -24.318876 20.486197
1.374979 -23.80262 20.480661
1.377248 -23.902498 20.439541
0.28108799 -24.298212 20.212181
0.281306 -24.323635 20.169975
1.184541 -23.476816 20.542221
1.1949069 -23.800034 20.63632
-1.002861 -23.893604 20.368881
-1.002865 -23.929926 20.336409
1.191798 -23.780363 20.489758
1.194634 -24.005812 20.30162
-0.088831 -23.789007 20.646391
-0.088137999 -23.785225 20.578411
-0.081534997 -23.613363 19.982851
-0.081280001 -23.69072 19.923851
-0.090129003 -24.59638 20.440464
-0.27225199 -23.716536 20.693544
-0.27208501 -23.75182 20.66008
0.826639 -23.524609 20.954666
-0.27186099 -23.913378 20.544058
-0.27044901 -23.888262 20.457573
0.82152498 -23.455175 20.56673
1.858626 -23.823368 20.423065
-0.27028099 -23.923201 20.423811
0.821311 -23.470863 20.516357
1.85832 -23.8477 20.380203
0.82963598 -23.852503 20.662174
0.82760602 -23.893902 20.376156
0.82985699 -24.207388 20.00857
2.0079191 -8.3491306 12.927456
2.0066819 -8.4421234 12.901186
2.0077231 -8.4663534 12.895783
2.1986511 -7.1187892 12.320539
2.0091031 -8.5705442 12.841135
2.2055769 -7.3113852 12.266726
2.2364941 -7.5101929 12.399099
2.0041659 -8.7813921 12.648974
2.007926 -8.8370724 12.648439
2.23173 -7.5885811 12.314328
2.1038589 -7.0518451 12.267064
2.0117691 -8.9123621 12.634766
1.433391 -9.0366974 13.336446
1.901356 -8.4992809 12.704458
1.434346 -9.0834141 13.318583
2.5285659 -7.6871729 12.182585
2.538178 -7.8109002 12.176526
1.898577 -8.6785059 12.553739
2.5302911 -7.8785372 12.076475
2.321655 -8.3074179 12.60119
1.782644 -8.1260033 12.622022
2.322068 -8.405056 12.541098
2.327013 -8.4424887 12.557468
2.1792369 -7.9030108 12.399501
2.3197119 -8.510932 12.451324
2.1759081 -7.9474802 12.343303
2.1889441 -8.0337162 12.400373
2.2010789 -8.0979319 12.46355
2.2209611 -8.2104521 12.56224
1.754064 -8.4511728 13.097277
2.219069 -8.3372383 12.463856
2.230334 -8.5136852 12.444383
2.222743 -8.5031748 12.385363
2.2197011 -8.5478506 12.328504
1.661166 -8.3793135 13.116079
1.748997 -9.030736 12.642161
1.7517329 -9.0647888 12.650574
2.562927 -8.9802103 12.61465
2.1700621 -8.7385578 12.550042
2.1802111 -8.8189907 12.587706
2.1874659 -8.8875532 12.60677
2.1909671 -8.9214258 12.615381
1.554837 -8.316288 12.946606
1.5581959 -8.4531336 12.901572
1.640606 -8.8684216 12.526915
1.644145 -8.9078007 12.543897
1.560342 -8.5046959 12.895891
1.6539921 -9.0217924 12.587642
1.565261 -8.5919456 12.903049
1.656383 -9.0547562 12.594367
1.573254 -8.6582747 12.965107
1.659541 -9.0922375 12.607605
1.576576 -8.6974134 12.983044
1.580241 -8.7779436 12.977272
1.574738 -8.8430538 12.85821
1.573028 -8.8522739 12.828683
1.566642 -8.8333292 12.755649
1.569244 -10.504771 12.840052
0.42142001 -10.494121 12.774436
1.567801 -10.570794 12.761026
0.42204401 -10.583293 12.725229
-0.152812 -10.52157 12.935434
0.99433202 -10.544371 12.793422
-0.14997301 -10.489159 12.811475
0.99580401 -10.581576 12.799936
-0.149645 -10.502942 12.78823
1.4676729 -10.445433 12.797718
1.470277 -10.541962 12.758281
0.90132201 -10.760949 12.662896
0.89781898 -10.727913 12.581816
-0.24733301 -10.641691 12.807168
0.901914 -10.84198 12.602592
0.899441 -10.823623 12.540276
1.986042 -10.413361 13.291856
0.231351 -10.45866 12.842679
-0.35226601 -10.474061 13.214836
0.231691 -10.58176 12.959994
0.231764 -10.561718 12.851775
-0.33898199 -10.415119 12.803439
-0.34599799 -10.562525 12.952395
0.232692 -10.789664 12.853557
-0.341719 -10.507765 12.840724
-0.34285101 -10.593469 12.827409
1.2788661 -10.494275 12.794688
0.70731097 -10.502338 12.786376
-0.433083 -10.582026 12.668971
0.71014899 -10.57628 12.840386
0.710971 -10.628406 12.825054
0.041329 -10.433625 12.832949
1.810149 -10.650396 13.375309
0.039522 -10.591324 12.95385
0.041294999 -10.51302 12.812228
1.80988 -10.708971 13.323594
1.760878 -10.4781 12.856216
1.755128 -10.518431 12.744533
0.613832 -10.548196 12.825259
1.756578 -10.546869 12.740077
0.61358303 -10.559503 12.798804
1.059443 -10.534897 12.882101
-0.054359 -10.559787 12.818997
1.055321 -10.524531 12.786547
-0.055165999 -10.637898 12.836829
1.6606669 -10.474706 12.801141
0.517452 -10.513137 12.784634
0.51747799 -10.530565 12.76609
1.661869 -10.540335 12.762868
-1.411867 -3.344336 68.300041
-1.409795 -3.6623521 68.212769
-1.411245 -3.8798361 68.274948
-1.411096 -4.0940232 68.266502
-1.409408 -4.4123278 68.19574
-1.408633 -4.624752 68.159676
-1.411009 -4.7380881 68.259163
-1.811927 -3.150563 68.134293
-1.812278 -3.2580791 68.146301
-1.8151031 -3.690454 68.238548
-1.81248 -3.793678 68.149864
-1.810451 -3.897577 68.080986
-1.799502 -4.199223 67.707664
-1.796105 -4.2995572 67.592255
-2.177814 -3.69363 67.070496
-2.1874499 -3.9174409 67.336151
-2.202338 -4.0443969 67.752182
-2.2228551 -4.2883158 68.324074
-2.207212 -4.4779348 67.879341
-2.199178 -4.571496 67.651817
-2.1999731 -4.891777 67.664612
-2.1949251 -4.9890332 67.520294
-2.186178 -5.0789661 67.272133
-2.620662 -4.2693958 68.12616
-2.6098671 -4.5754461 67.857101
-2.609731 -4.681921 67.850906
-2.587111 -4.8611541 67.299477
-0.60124999 -3.3226831 68.741234
-0.60333502 -3.5463481 68.924377
-0.60610998 -3.6652911 69.165543
-0.58762997 -4.1290002 67.624107
-0.59132802 -4.3596258 67.948425
-0.584939 -4.6485858 67.417259
-0.586577 -4.9764991 67.565437
-0.59041798 -5.1047711 67.895859
-0.59018397 -5.2107449 67.880852
-0.58912098 -5.5256982 67.798897
-1.0046999 -3.2803731 68.549072
-0.59227097 -5.6527071 68.070427
-1.00284 -3.384048 68.447006
-1.001369 -3.488313 68.36676
-1.000316 -3.807992 68.310806
-0.99258101 -4.3219461 67.880798
-0.99283898 -4.4296551 67.896973
-0.99611098 -4.653964 68.080475
-0.99410897 -4.9686852 67.971222
-0.99510401 -5.1862898 68.025238
-0.99421 -5.397388 67.976868
-0.993891 -5.5033231 67.959412
1.116364 53.134914 38.200748
1.1116509 52.753143 38.309265
1.108476 52.493221 38.376236
1.106261 52.326023 38.382305
1.1041189 52.13118 38.494274
1.100363 51.835976 38.5322
1.0982341 51.641003 38.642162
1.096117 51.479069 38.649288
1.0926 51.19722 38.693356
1.091217 51.006802 38.931072
1.09708 51.1992 39.58799
1.098815 51.260986 39.764091
0.72863603 53.348957 37.907295
0.72567499 52.998676 38.040035
0.72444999 52.854115 38.064102
0.7234 52.727535 38.100555
0.72038698 52.369186 38.22319
0.719172 52.224812 38.245605
0.71802199 52.086983 38.272346
0.71502101 51.727226 38.389381
0.71384698 51.5863 38.412491
0.71276897 51.455097 38.442356
0.710742 51.193546 38.62772
0.71126699 51.227554 38.779556
0.71247298 51.331707 38.984261
0.71388602 51.422501 39.435814
2.6824059 53.229958 37.943138
2.297143 53.381233 37.91642
2.2892611 53.032646 38.050579
2.2850609 52.875057 38.06551
2.2820649 52.74852 38.102039
2.2734511 52.380524 38.217899
1.904847 53.255127 37.952805
1.901971 53.117119 37.982132
1.895332 52.768654 38.114384
1.891641 52.60471 38.123867
1.88898 52.473373 38.156219
1.882676 52.134769 38.291138
1.879354 51.98246 38.307034
1.876446 51.843163 38.331963
1.515257 53.147575 38.164169
1.512634 52.996323 38.183861
1.509297 52.775578 38.280102
1.504897 52.507504 38.341572
1.501811 52.337021 38.345516
1.499676 52.164894 38.474117
2.3867919 -12.400558 13.811186
2.3913479 -12.466793 13.801362
2.389436 -12.497944 13.750921
1.669759 -12.559219 14.348248
2.39077 -12.608455 13.662398
1.664166 -12.577296 14.234403
2.3934109 -12.664017 13.639743
2.357832 -12.637321 14.533538
1.662993 -12.609824 14.18336
2.4043369 -12.744855 13.687506
2.339951 -12.559439 14.394217
1.661546 -12.618965 14.149488
2.4145491 -12.863107 13.691012
2.3384931 -12.616182 14.326052
1.657355 -12.647094 14.049382
2.4245191 -12.939104 13.732205
2.3377061 -12.633348 14.301271
1.654964 -12.648113 14.006478
2.4313691 -12.997885 13.754105
1.653832 -12.659467 13.975664
1.806178 -13.557542 13.791998
1.648348 -12.696192 13.843362
1.647058 -12.705879 13.811058
1.643648 -12.73831 13.718591
1.641886 -12.743738 13.681831
2.3281569 -13.084877 13.761153
2.3333089 -13.135766 13.773984
2.343606 -13.237623 13.799227
2.358254 -13.365534 13.851711
2.044769 -12.016923 13.940954
2.0758049 -12.314886 14.079383
2.070612 -12.303586 14.021492
2.0712099 -12.412237 13.930071
2.4950941 -11.779247 13.268031
2.012105 -12.622979 14.430973
2.5620649 -12.208604 13.558805
2.5133309 -12.108546 13.152318
1.975966 -12.696911 13.852322
1.974161 -12.705273 13.818587
1.971007 -12.704314 13.774434
2.487299 -12.294756 13.825204
1.964937 -12.744479 13.648513
2.0211129 -13.361006 13.852836
2.516768 -12.882098 13.593348
2.537426 -13.032658 13.673818
0.63686001 -22.295826 22.624577
0.63947099 -22.452156 22.715673
0.63673002 -22.337183 22.526548
0.63730597 -22.438223 22.420103
0.63813502 -22.50408 22.417332
0.63924098 -22.584021 22.428646
0.641339 -22.762167 22.399019
0.64192498 -22.815516 22.382763
0.64338899 -22.937679 22.365389
-0.477348 -22.923098 22.355392
-0.47951901 -23.078045 22.369858
-0.481904 -23.198418 22.418941
-0.481442 -23.268402 22.348221
-0.483603 -23.423985 22.360929
-0.48598099 -23.545002 22.408796
-0.48268399 -23.563215 22.217815
0.26639399 -22.206469 22.732504
0.26665199 -22.255816 22.713163
0.26619199 -21.948765 22.18465
0.26700699 -22.20496 22.379402
0.26769701 -22.371124 22.410461
0.26859501 -22.60795 22.512032
0.26897201 -22.699291 22.534578
0.26922801 -22.703257 22.398685
1.38511 -22.531778 22.635332
1.19429 -22.321245 22.662294
1.194826 -22.363564 22.635542
1.194858 -22.394735 22.597218
1.199296 -22.584057 22.580654
1.200781 -22.64728 22.57486
1.202204 -22.709139 22.567497
1.203874 -22.837053 22.486336
1.0067101 -22.152761 22.736774
1.0070831 -22.222191 22.667877
-0.104159 -22.759535 22.56884
1.010218 -22.454296 22.555614
1.0150191 -22.643663 22.608589
1.0193191 -22.849127 22.605915
2.4597571 -5.0844741 11.438271
2.4760871 -5.5757551 11.324874
2.5240381 -5.8615832 11.486193
2.539901 -5.987524 11.523563
2.5423441 -6.0819259 11.492251
2.500283 -6.1702361 11.184574
2.3726931 -5.663033 11.346272
2.5624599 -6.5891151 11.353027
2.561393 -6.6732712 11.299456
2.356786 -6.0540261 11.050563
2.3550899 -6.134274 10.997569
2.2403359 -5.6638451 11.21449
2.3627951 -6.2519579 11.773396
2.345942 -6.2959938 11.633805
2.5808201 -4.8883762 10.955419
2.376214 -6.5597291 11.707848
2.5724931 -4.715251 11.608405
2.367435 -6.7422361 11.575308
2.234956 -6.10219 11.810565
1.849979 -5.727591 11.492394
1.8461159 -5.733222 11.457381
1.829443 -5.698669 11.333874
2.5790241 -4.8165121 11.607966
2.2352741 -6.2840071 11.722517
2.233789 -6.3695698 11.667682
2.5475609 -5.0238738 11.348369
2.544112 -5.1045341 11.295816
2.549181 -5.2015991 11.284594
2.579752 -5.8029332 11.19165
1.415638 1.7624151 9.9250278
1.414688 1.745115 9.9210939
1.4165649 1.7180541 9.944006
1.434037 1.484889 10.147648
1.901598 1.623457 9.9591112
1.539211 1.745786 9.9348354
1.178414 1.84663 9.954278
1.191695 1.849234 10.097388
1.192451 1.835433 10.10906
1.55013 1.671945 10.038221
1.185218 1.786231 10.043315
1.183504 1.7507989 10.03355
1.542277 1.565583 10.001658
1.5401911 1.5466191 9.9896603
1.176334 1.63111 10.010429
1.197928 1.665715 10.235386
1.188804 1.597373 10.152925
1.178757 1.558901 10.053413
1.183298 1.553461 10.103582
1.119121 1.818126 10.003043
1.11929 1.803054 10.008869
1.1242321 1.769814 10.074522
1.122625 1.749881 10.060925
1.4734271 1.484759 9.9756327
1.117743 1.597057 10.041624
1.118448 1.583212 10.052941
1.124644 1.567367 10.127952
1.1242779 1.534992 10.131042
1.735871 14.310831 9.9664307
1.734058 14.278679 9.9788504
2.2150271 13.728723 9.9483728
2.2133169 13.701735 9.9630423
2.241466 13.81348 10.240736
