# .PCD v0.7 - Point Cloud Data file format
VERSION 0.7
FIELDS x y z
SIZE 4 4 4
TYPE F F F
COUNT 1 1 1
WIDTH 1592
HEIGHT 1
VIEWPOINT 0 0 0 1 0 0 0
POINTS 1592
DATA ascii
-0.86302698 -20.095531 23.541466
0.43216801 -20.855637 22.415466
2.353698 -19.148869 22.067856
-0.86372298 -20.142769 23.521173
0.43213701 -20.901634 22.393513
2.355334 -19.235012 22.025463
-0.865426 -20.243938 23.487778
0.43203399 -20.986752 22.342117
2.359689 -19.346359 22.010908
-0.86620098 -20.326385 23.433092
0.43189901 -21.071638 22.290432
1.492937 -20.098564 21.809813
2.360563 -19.390022 21.990141
-0.86785901 -20.392178 23.433231
0.43086901 -21.019789 22.167822
1.494224 -20.19141 21.771137
-0.86942601 -20.490643 23.395859
0.429811 -21.010464 22.020296
1.4959069 -20.291019 21.739325
2.361774 -19.543055 21.882683
0.42788601 -20.917398 21.789116
1.496253 -20.368526 21.684088
2.3608029 -19.604536 21.812412
-0.87294 -20.694094 23.327358
0.426691 -20.892286 21.62822
1.497734 -20.428734 21.678612
2.3648601 -19.677811 21.823341
0.42539799 -20.811598 21.479939
1.4995871 -20.531107 21.648661
1.502066 -20.643412 21.628229
1.5032049 -20.698132 21.616419
1.5047719 -20.831497 21.549074
1.50736 -20.910221 21.560883
1.512422 -21.030027 21.613449
0.062176 -20.848728 23.396852
1.922363 -18.488064 22.226727
2.1891699 -19.688789 21.847683
1.9231631 -18.533091 22.209072
2.1931479 -19.764988 21.861288
1.925017 -18.589832 22.204952
2.1966131 -19.906755 21.807915
0.060635 -21.166452 23.301702
2.197005 -19.946201 21.781715
0.060183 -21.266525 23.262779
1.332168 -21.035427 21.6542
1.327253 -20.977327 21.528517
0.059161 -21.49291 23.139162
0.059863001 -21.41946 22.918667
0.060467999 -21.364422 22.718966
0.061085001 -21.288412 22.569813
1.312309 -20.938349 21.024454
0.062047001 -21.175667 22.313896
0.062373001 -21.159748 22.158764
0.062843002 -21.104422 22.033606
1.316554 -21.198015 20.948689
1.947782 -19.601521 21.885141
0.063598 -21.038069 21.76157
1.333609 -21.63986 21.174875
1.950318 -19.737717 21.826942
0.064033002 -20.987196 21.642832
1.952866 -19.803015 21.828802
0.064451002 -20.938833 21.527134
0.065140001 -20.880135 21.268473
1.341719 -21.979034 21.164915
0.065591 -20.826399 21.149246
0.065975003 -20.782324 21.040058
0.065676004 -20.867645 20.927143
0.065305002 -20.934654 20.927057
0.064806998 -21.020393 20.944899
0.064507 -21.105167 20.830961
0.064115003 -21.175177 20.832994
0.063868999 -21.22353 20.814161
1.13701 -21.028191 21.090725
0.96895301 -21.712868 21.102365
-0.25659499 20.676823 26.748007
-0.25803101 20.696568 26.861229
-0.256605 20.591917 26.810173
3.056987 18.223612 24.790012
-0.253986 20.352154 26.753086
2.056921 19.491207 25.882206
3.054554 18.169746 24.797062
3.0541611 18.128656 24.821814
3.0515311 17.995861 24.882603
0.90908301 18.904388 26.261156
3.052434 17.962702 24.918451
0.90823197 18.841459 26.259222
3.0518539 17.9203 24.941231
0.898085 18.53285 25.906849
2.068131 19.240284 26.31094
1.991273 18.41971 25.250854
3.063658 17.836655 25.155861
2.065335 19.130127 26.331184
3.0478699 17.700962 25.044159
2.011251 18.462902 25.649414
3.048383 17.586626 25.130598
0.89399099 18.104727 25.983072
2.0437441 18.749052 26.14167
3.0465021 17.536098 25.141226
0.89279002 18.033728 25.966316
2.053118 18.760918 26.333546
3.0468531 17.45956 25.198383
0.891554 17.921022 25.97534
2.0322249 18.471304 26.09276
3.0464261 17.37849 25.248762
2.885865 18.459051 24.794359
0.891451 17.83864 26.028788
2.012162 18.231714 25.833845
3.04547 17.33346 25.267241
2.0357289 18.383705 26.228891
3.0439639 17.245449 25.307211
2.0116291 18.065258 25.939121
1.857046 18.877604 26.138309
3.0429771 17.160767 25.351915
2.0086319 17.954853 25.951662
3.0429521 17.081331 25.404594
2.017189 17.998108 26.103394
1.850847 18.685762 26.127333
3.043107 17.0427 25.432535
2.005795 17.806284 25.994604
3.0421159 16.957691 25.476557
2.001879 17.687185 25.992809
0.54232299 20.827162 26.87694
1.997383 17.603456 25.955162
3.0420549 16.837948 25.55455
2.766093 19.351355 25.115967
0.71528798 18.745195 26.208668
0.54149699 20.735554 26.843777
1.9893121 17.404684 25.91939
2.894474 17.891029 25.325266
0.71199602 18.504257 26.126057
0.54054999 20.552883 26.864397
1.985044 17.323669 25.884371
2.729656 18.925606 24.875448
0.53970402 20.46051 26.828892
2.718152 18.802235 24.791059
0.70970201 18.341709 26.066244
0.53879899 20.364708 26.788355
0.53676701 20.117496 26.718342
2.936347 17.924013 25.888124
0.53580201 20.018763 26.672098
0.53507203 19.934431 26.644951
1.826552 17.686125 26.247402
0.53297597 19.685665 26.56711
1.828058 17.661587 26.299622
1.67433 19.630575 25.823271
0.53155798 19.560781 26.4825
1.8231 17.567774 26.2467
1.672403 19.565159 25.819878
0.529845 19.418644 26.373249
1.819958 17.411722 26.277323
1.6878901 19.646391 26.185226
0.52753001 19.159702 26.27412
1.819206 17.363024 26.292377
0.527426 19.113979 26.297132
1.947402 16.328949 25.751308
1.815272 17.280701 26.255346
0.52618301 19.001034 26.225515
1.8075089 17.076561 26.208649
1.694522 19.527815 26.45573
2.6940961 17.92907 25.063026
2.570792 19.330587 25.020727
1.803985 16.999067 26.177647
1.685423 19.369486 26.323854
2.6997299 17.929838 25.147827
1.682597 19.250904 26.33312
2.70327 17.876049 25.238943
1.7918741 16.710579 26.083916
1.680457 19.141836 26.354977
2.707418 17.826496 25.336594
1.791221 16.663431 26.099442
1.637331 18.551142 25.610714
2.712888 17.825256 25.419899
0.51955402 18.256615 25.944887
1.653828 18.680511 25.964872
1.480422 19.865429 25.586006
0.520082 18.206984 26.047176
1.773321 16.23704 25.957485
2.7515931 17.853065 25.980362
2.7467101 17.779123 25.958176
2.419101 19.927027 25.220675
2.4161839 19.861961 25.218266
2.401515 19.654209 25.111757
2.3968191 19.534369 25.118328
2.3893459 19.429861 25.062698
0.13970099 20.79892 26.862442
1.490952 19.297789 26.349621
2.3868351 19.290451 25.123634
0.139835 20.712204 26.835571
2.3692851 19.099018 24.950743
0.33289099 18.492043 26.116968
0.139883 20.649742 26.840405
2.516372 17.808092 25.241325
2.3579459 18.961975 24.849194
0.33244601 18.389629 26.056719
0.140256 20.408531 26.782013
1.611122 17.227242 25.832079
2.3456321 18.739452 24.793941
0.14040799 20.316429 26.746162
2.339951 18.652088 24.75701
0.140527 20.234035 26.722929
2.331923 18.544777 24.692553
1.59076 16.784229 25.588804
2.323607 18.35821 24.681261
0.14106201 19.898481 26.618334
2.319581 18.285616 24.662722
1.592049 16.720285 25.6656
1.4529999 18.256159 25.916828
1.305639 19.953686 26.160442
0.14180399 19.50638 26.429586
2.5390029 17.460157 25.846798
0.142093 19.37727 26.338022
1.445111 17.982077 25.865454
2.533725 17.381239 25.815432
0.142308 19.230661 26.308224
1.453046 18.014408 26.087679
2.527251 17.253275 25.797096
1.442497 17.784204 25.922676
-0.060906 20.668255 26.876953
1.437155 17.588055 25.893137
2.329582 17.904285 25.117434
2.337389 17.890522 25.265932
2.3401189 17.873713 25.326288
2.341337 17.804533 25.395981
2.3415511 17.727333 25.454004
2.120707 18.936226 25.145945
-0.057397 20.018972 26.795742
2.3452499 17.677801 25.553034
-0.056648999 19.920305 26.749195
2.34922 17.670225 25.628187
2.1227419 18.838121 25.260578
3.276953 18.836992 24.859715
2.3655429 17.641191 25.934105
3.264714 18.724524 24.789694
2.3606801 17.562029 25.903055
2.114233 18.559492 25.293297
2.349438 17.351562 25.848764
2.1123569 18.423212 25.354425
-0.050003 19.051359 26.333885
1.0869811 18.923302 25.847261
1.100112 19.161564 26.264547
1.10245 19.170527 26.363977
2.1454799 18.456678 25.998465
1.0959589 18.911394 26.261456
2.131402 18.203959 25.894602
1.089048 18.726189 26.086435
2.1318581 18.168003 25.929193
1.084668 18.594507 25.986109
2.1254849 18.068712 25.871572
2.1329491 17.975952 26.084827
2.12304 17.844704 25.978462
2.111635 17.619476 25.9062
1.07532 18.039915 25.967241
2.108186 17.547993 25.886772
1.0728689 17.909199 25.949825
2.1026671 17.417343 25.86569
1.077369 17.920729 26.142479
2.093209 17.252033 25.790707
1.072052 17.772881 26.010695
2.088419 17.169071 25.752087
1.070479 17.660347 26.018665
2.0847249 17.055759 25.754532
1.064905 17.468567 25.906229
1.06476 17.385223 25.956476
-0.14109001 3.087359 23.938059
-0.151262 2.890415 24.615004
-0.15489 2.796797 24.85544
-0.156689 2.768806 24.974682
-0.158553 2.701148 25.097525
-0.162247 2.643471 25.341749
-0.16393401 2.6131251 25.45286
-0.165894 2.543551 25.581266
-0.16697501 2.4803679 25.811647
-0.168952 2.4092109 25.943687
-0.17087799 2.378078 26.072472
-0.28421199 2.8635521 24.008266
-0.17508601 2.31633 26.353874
-0.28920999 2.8121769 24.250708
-0.176806 2.241255 26.46751
-0.291675 2.747376 24.371614
-0.179176 2.2103119 26.62603
-0.29405299 2.7199941 24.486761
-0.18333399 2.1444049 26.903053
-0.29864901 2.663425 24.709013
-0.185295 2.0677249 27.032167
-0.30116001 2.5964711 24.831524
-0.18734901 2.0333769 27.168531
-0.303543 2.5674911 24.946512
-0.19172101 1.921186 27.457512
-0.30827799 2.4687071 25.175676
-0.193749 1.8852251 27.591692
-0.31111601 2.4402699 25.312447
-0.196041 1.849763 27.743801
-0.313503 2.409657 25.427263
-0.31849501 2.307786 25.667776
-0.321338 2.2775271 25.804373
-0.32397601 2.246125 25.930965
-0.21097299 1.539946 28.729105
-0.21348201 1.5010951 28.894751
-0.215786 1.4612319 29.046354
-0.221167 1.3355761 29.398853
-0.34112999 1.969293 26.752626
-0.441663 3.0085399 24.496
-0.34398299 1.9352289 26.888826
-0.44444501 2.980809 24.601507
-0.34701601 1.858742 27.033278
-0.44780299 2.916065 24.730839
-0.35347 1.789897 27.341297
-0.45458901 2.863039 24.987396
-0.35653299 1.754356 27.487255
-0.457798 2.835263 25.108675
-0.359945 1.6757309 27.649164
-0.46100399 2.767421 25.231663
-0.36636901 1.602481 27.954721
-0.467163 2.7087319 25.464037
-0.36904499 1.519942 28.080231
-0.47016099 2.638361 25.57872
-0.372693 1.4827451 28.253805
-0.474172 2.610894 25.729645
0.289359 2.9971681 24.359125
-0.38020101 1.407081 28.6108
-0.482779 2.556339 26.053335
0.28938299 2.9271181 24.424892
-0.38375199 1.322891 28.777693
-0.486792 2.486238 26.205477
0.28950599 2.858578 24.510313
-0.387407 1.2832479 28.951004
-0.49033001 2.455251 26.338312
0.289597 2.825659 24.567898
-0.226587 0.36929801 29.639921
-0.39499199 1.156705 29.308655
-0.498366 2.3528171 26.64085
0.29007 2.7306449 24.792116
-0.39770201 1.114012 29.435757
-0.50238597 2.321595 26.791483
0.29032499 2.7017701 24.901308
-0.22622301 0.27687401 29.599712
-0.40181801 1.072494 29.630762
-0.50646001 2.2900431 26.944077
0.46229199 1.925706 27.695637
0.29059899 2.673104 25.016443
-0.514296 2.181941 27.238005
0.29115701 2.5768991 25.269976
-0.51863998 2.14937 27.400415
-0.52271903 2.115685 27.552813
-0.53025001 2.001801 27.834066
0.29225701 2.416574 25.756878
-0.233695 -0.14836501 30.036938
-0.53491902 1.967694 28.008245
0.29252899 2.3851409 25.87369
-0.418024 0.61457002 30.371565
-0.54054499 1.93495 28.218321
0.29286399 2.354856 26.010408
-0.229884 -0.32882199 29.74704
-0.41803199 0.47200301 30.358238
-0.55074602 1.820604 28.598671
0.484099 1.44715 30.261631
0.293376 2.249578 26.254745
-0.23231 -0.37961 29.901793
-0.41806501 0.42454699 30.354328
0.481657 1.391667 30.005394
0.293688 2.2174389 26.385324
-0.41789001 0.37710801 30.340343
0.480553 1.341451 29.896984
0.294018 2.1853011 26.521854
-0.41670099 0.23510499 30.267912
0.479978 1.200331 29.869108
0.294606 2.0775321 26.793453
0.47974199 1.1533099 29.856346
0.29496899 2.0446501 26.941793
-0.67530102 2.152617 27.175789
0.47947499 1.05966 29.848558
0.29525599 1.9685251 27.086576
-0.232421 -0.79792398 29.829876
-0.68616003 2.0879519 27.508385
0.47885701 0.96557802 29.80652
-0.69269699 2.056886 27.708548
0.47838601 0.91834998 29.767393
0.29630801 1.864622 27.523092
-0.41563499 -0.14192601 30.171495
-0.69936001 1.981598 27.913166
0.47881901 0.82606202 29.836855
0.296606 1.785876 27.673357
-0.414832 -0.235193 30.119686
0.297333 1.713505 27.975266
-0.41452399 -0.32887301 30.093533
0.297607 1.632158 28.119102
-0.41414401 -0.375292 30.068373
0.47619101 0.40635201 29.649948
0.475128 0.360315 29.543938
0.47506601 0.221489 29.569416
0.47912201 0.171012 30.035072
0.47907901 0.123981 30.042685
-0.58062601 0.43306199 29.641733
-0.57791001 0.38694999 29.535793
0.47358799 -0.054290999 29.472466
-0.57807499 0.34078601 29.537743
0.47325999 -0.099904999 29.447731
-0.78496897 1.030829 30.510223
0.47231901 -0.236397 29.373058
-0.78684402 0.98418599 30.565144
0.471937 -0.281555 29.342043
-0.78571802 0.93573701 30.528053
0.47164401 -0.32688099 29.320951
-0.78438503 0.79182798 30.480247
0.470898 -0.462892 29.267214
-0.78410798 0.74405098 30.468836
0.47074801 -0.50849801 29.261833
0.129187 1.684044 28.308882
-0.78298199 0.69605201 30.431364
0.470384 -0.55326599 29.232395
0.12815601 1.561623 28.580399
0.470294 -0.69134998 29.251541
0.127597 1.52289 28.740082
0.46966401 -0.73470902 29.191849
0.12700801 1.437977 28.889355
0.46952799 -0.82631302 29.194107
0.125875 1.357617 29.210331
0.46869299 -0.91436601 29.122202
0.125269 1.3170691 29.38373
0.468577 -0.95987397 29.120108
0.124614 1.229519 29.552378
0.46805099 -1.0490299 29.077715
0.123323 1.1457469 29.922749
0.46764001 -1.138808 29.053061
0.123508 1.049595 29.80094
0.467291 -1.22867 29.030085
0.123415 1.002907 29.795929
0.46704999 -1.273201 29.013521
0.122939 0.91110897 29.883677
0.46640801 -1.360989 28.962223
0.122272 0.81964302 30.05109
0.466216 -1.451604 28.956516
0.121571 0.77483499 30.251703
0.46593899 -1.495641 28.935617
0.46541601 -1.629648 28.902399
0.46514001 -1.673486 28.881227
0.46484599 -1.7171119 28.857994
0.122544 0.39741299 29.647984
0.46437401 -1.851041 28.829725
0.122758 0.35144699 29.537947
0.122604 0.30521801 29.551834
0.120534 0.16084599 30.144997
-0.060704999 0.43330401 30.383101
-0.055268999 0.29305199 29.740906
-0.054441001 0.200895 29.622427
-0.055394001 0.107354 29.707603
-0.060291 0.054806001 30.241047
-0.060382001 -0.039485 30.223808
-0.058991998 -0.13093901 30.046268
1.830361 4.36134 28.291124
0.82767099 4.0176158 29.083666
0.82971799 3.9392381 29.200132
1.852041 4.2355518 28.701555
0.83327502 3.868885 29.389914
0.80979902 3.6513801 28.30007
0.80762899 3.5962009 28.207811
1.877328 4.0674109 29.182713
0.846062 3.7078071 30.046494
0.84927201 3.6308219 30.217821
0.85146201 3.5950041 30.332273
0.868366 3.2926681 31.214476
0.86757302 3.0476 31.226387
1.980649 3.422502 31.125742
1.9903769 3.2925291 31.316679
0.86313403 2.7893479 31.062899
1.986184 3.237119 31.249622
0.86279702 2.7400341 31.056673
1.984849 3.1375389 31.238514
0.86150098 2.6391039 31.01203
1.963348 2.9604621 30.879017
1.970597 2.874125 31.018312
0.86254799 2.2948921 30.96937
1.9736151 2.680223 31.039434
0.86170202 2.1961131 30.943245
1.973393 2.6315441 31.041019
1.971365 2.5323031 31.016069
1.968931 2.4326141 30.982782
0.85964102 1.950429 30.882607
1.969274 2.3846681 30.993942
1.967133 2.2857039 30.966204
0.85677999 1.704241 30.782047
1.799511 2.702462 31.260975
1.5083359 4.2336631 28.699846
0.856543 1.655876 30.778091
0.85684001 1.512378 30.811684
1.79274 2.498245 31.149357
1.527174 4.107615 29.14765
0.85622501 1.463403 30.789436
1.79172 2.4483449 31.134706
1.529766 4.0694652 29.212948
0.85539901 1.414184 30.757118
1.496213 3.843869 28.491989
0.85414302 1.268562 30.715618
1.491732 3.7878361 28.400169
0.853652 1.220081 30.69898
1.952266 1.646152 30.759108
1.535867 3.857842 29.385843
0.85312003 1.171607 30.680265
0.494443 3.5937321 30.781376
1.546092 3.745894 29.634171
0.493664 3.4437611 30.740385
1.950847 1.453055 30.748444
1.557003 3.7265141 29.88369
0.49224001 3.3818779 30.601824
1.9498301 1.404474 30.734119
1.5763251 3.7266581 30.319931
0.491788 3.330447 30.568665
1.946939 1.258965 30.692644
1.586983 3.6095159 30.577761
0.491045 3.1822801 30.530376
1.946148 1.210673 30.682005
1.594396 3.5787971 30.74975
0.49072099 3.1324339 30.510826
1.943821 1.113781 30.646482
0.490338 3.034879 30.495352
1.611649 3.423944 31.160988
0.490311 2.94116 30.523457
0.48962101 2.8882999 30.463642
0.49073401 2.8037429 30.610888
1.607945 3.173821 31.112217
0.493496 2.7321711 30.943422
1.8890409 0.628299 29.703636
1.5929199 3.0003631 30.796446
1.889539 0.44245601 29.720516
1.601745 2.8234119 31.017422
1.893488 0.39588901 29.792456
1.762473 0.78357297 30.691084
1.600108 2.6273 31.004189
1.760438 0.73515898 30.653721
0.49108899 2.1434481 30.846235
1.759414 0.68705797 30.636255
2.2033069 4.1126781 28.834625
1.755779 0.54292202 30.571381
0.49100199 1.9520839 30.890574
1.915328 -0.029774999 30.19286
1.754654 0.49505699 30.551615
0.489694 1.8975331 30.761145
1.7533261 0.447247 30.527779
1.9052089 -0.214912 30.017925
1.7513061 0.30405501 30.493729
1.426592 3.308887 31.221569
2.2204151 3.7812459 29.136826
1.425632 3.25805 31.204231
1.424751 3.2074561 31.188801
1.1749901 4.154345 29.087503
1.181522 4.0429788 29.309237
2.2492371 3.598731 29.587139
1.710586 0.027626 29.698624
2.2618549 3.5719221 29.776695
1.709463 -0.018521 29.678049
1.1472141 3.8277509 28.290527
1.9270459 4.414413 28.090664
1.587641 1.647275 30.825586
1.417785 2.804496 31.062305
1.192517 3.8535221 29.682531
1.711871 -0.20530701 29.730787
1.1907099 3.801255 29.636299
1.201594 3.7453451 29.980623
1.579633 1.400913 30.666739
1.214728 3.694874 30.394491
2.3584869 3.281528 31.235495
1.578272 1.352136 30.640331
1.217976 3.6580679 30.501028
2.356467 3.2301929 31.212181
1.411509 2.406342 30.948551
1.574299 1.15853 30.565842
1.4095089 2.3067119 30.908861
1.9996361 3.991132 29.375643
1.408638 2.20889 30.896736
1.407522 2.159095 30.873619
1.989899 3.743788 29.25029
1.403412 1.96099 30.788286
1.403147 1.912657 30.786724
1.538707 0.62773502 29.801241
1.405179 1.770823 30.853413
1.403134 1.72043 30.805628
0.97869903 3.6627131 28.368935
1.539372 0.53462899 29.821819
1.534447 0.394853 29.718229
1.400412 1.525445 30.753422
1.525519 0.34904999 29.520397
1.399527 1.47666 30.735193
1.525051 0.302948 29.512302
1.541666 0.160826 29.891125
1.553032 0.111232 30.148453
1.550513 0.064790003 30.094032
1.3904099 1.0394239 30.535599
1.380221 0.93930298 30.279716
1.521745 -0.295865 29.460291
1.385639 0.79916 30.429792
1.517717 -0.33954901 29.37129
1.382669 0.75072199 30.356455
1.049794 3.0008991 31.161118
1.36566 0.65196002 29.921728
1.5410351 -0.540941 29.899248
1.361266 0.55782998 29.814476
1.366786 0.51179498 29.960588
1.354414 0.41779101 29.645006
1.354497 0.32510301 29.652929
1.044336 2.4534659 31.037832
1.373013 0.088202998 30.145042
1.370976 -0.005502 30.095928
1.041096 2.2047291 30.951221
1.038931 2.007601 30.896057
1.03807 1.957883 30.870598
1.184495 0.683047 29.836573
1.03654 1.714811 30.843925
1.179684 0.63551098 29.693066
1.0361609 1.666181 30.835972
1.033141 1.517727 30.739679
2.2782459 0.013295 30.293125
1.176016 0.44976801 29.593996
1.032172 1.468556 30.709433
2.265461 -0.031084999 30.106947
1.177274 0.40344799 29.636021
1.032167 1.420683 30.715076
1.1724139 0.26526701 29.49576
1.0305901 1.275149 30.671556
1.175626 0.218366 29.59746
1.029568 1.226283 30.638922
1.02908 1.178031 30.626196
1.027235 1.033089 30.571527
1.18481 -0.01771 29.892906
1.026587 0.98491597 30.5525
1.0260299 0.88906503 30.540157
1.170908 -0.195585 29.475985
1.1711839 -0.241933 29.487005
1.166244 -0.33030501 29.338938
1.1799459 -0.43478301 29.764086
1.006918 0.55128098 29.855927
1.0034291 0.45760801 29.732262
1.003742 0.411145 29.74831
1.000316 0.31849399 29.628244
1.865029 -3.736989 29.172302
1.85883 -3.812748 29.054468
1.855536 -4.1692581 28.957798
1.861412 -4.460402 29.029589
1.8463759 -4.5968471 28.742794
1.840767 -4.7149329 28.626543
1.682314 -4.2623248 28.975147
1.678349 -4.3408618 28.887434
1.834564 -4.9199939 28.487354
1.8366539 -5.016921 28.511679
1.832967 -5.0942221 28.433731
1.834257 -5.323092 28.422928
1.667271 -5.118042 28.567207
1.66662 -5.2508378 28.534964
1.664675 -5.5133328 28.456915
1.65734 -5.796545 28.263266
1.628487 -6.1978931 27.609089
1.6240751 -6.26441 27.506651
1.489325 -4.7434568 28.526176
1.625241 -6.3135481 27.521362
1.623491 -6.4357848 27.462227
1.48841 -4.9198942 28.48341
1.624257 -6.4830618 27.46888
1.488016 -4.9632678 28.469122
1.6235271 -6.5230231 27.446405
1.623571 -6.6536798 27.421146
1.483663 -5.1241641 28.348539
1.6427439 -7.0140138 27.739208
1.473242 -5.3451581 28.079912
1.641912 -7.0536952 27.714018
2.841352 -7.9231348 27.5145
1.470032 -5.3747158 28.00239
2.7600679 -7.7896652 26.630447
1.471005 -5.5122738 28.004103
2.7610281 -7.8348169 26.628946
1.469028 -5.5471768 27.953751
1.464147 -5.5679412 27.838924
1.459578 -5.677659 27.716793
1.458833 -5.7178969 27.69355
1.649902 -7.5812058 27.761265
1.460023 -5.8115811 27.705307
1.650225 -7.6712642 27.747532
1.460905 -5.9039431 27.710941
1.6493911 -7.7106609 27.721388
1.46561 -5.972065 27.808041
1.650153 -7.8030348 27.714853
1.463895 -6.0512462 27.754755
1.64938 -7.8867111 27.679352
1.649146 -7.9732609 27.653114
1.649207 -8.0176182 27.643732
2.659766 -7.9408889 27.400145
2.6173749 -7.8384819 26.914612
2.1580579 -4.8716912 28.221699
2.622292 -7.9830542 26.934376
2.6240311 -8.0316887 26.942072
1.472268 -6.7145238 27.828341
1.64254 -8.4154654 27.405233
2.6257689 -8.080368 26.949682
2.6259141 -8.2085018 26.915033
1.480459 -6.9391308 27.974174
2.6288431 -8.2615566 26.935596
1.476553 -6.9606528 27.879587
1.6368231 -8.597271 27.238335
2.6390951 -8.341157 27.03756
2.57777 -8.2443762 26.318499
1.637202 -8.7731524 27.198183
1.479075 -7.1974049 27.890139
1.63605 -8.9821129 27.115732
1.297019 -6.4916339 27.763008
1.297873 -6.5413222 27.777327
1.635848 -9.2829647 27.023878
1.298636 -6.6345859 27.780483
2.465055 -7.9894509 27.087725
1.645283 -9.4341946 27.177267
1.64044 -9.5304441 27.046183
1.4680721 -7.9645181 27.463383
1.4678479 -8.006814 27.448278
1.308224 -7.05369 27.959963
1.6203589 -9.6031227 26.600943
1.308602 -7.1453042 27.951757
1.463931 -8.1547346 27.320496
1.307346 -7.2257161 27.902815
1.466671 -8.2608566 27.358105
1.307268 -7.314034 27.882488
1.306981 -7.356504 27.866463
1.466784 -8.3926649 27.328316
1.3066339 -7.4429822 27.839987
1.466637 -8.4787264 27.302372
1.306101 -7.5278292 27.80744
1.305889 -7.570704 27.793007
2.325263 -7.947618 27.521851
1.3053139 -7.6552558 27.760103
1.304704 -7.7392249 27.724989
1.304189 -7.7796798 27.702562
1.296011 -8.1131363 27.406433
1.29576 -8.3739958 27.338097
3.266561 -8.2936611 26.561581
1.295314 -8.501482 27.294424
3.2725019 -8.436408 26.574898
1.295168 -8.631278 27.25774
1.471945 -9.8238955 27.050781
1.4724 -9.9141989 27.033348
1.300222 -9.3304768 27.211771
3.1698411 -8.3769436 27.260824
1.3012739 -9.4709883 27.201157
3.158401 -8.3854723 27.142992
1.300456 -9.5072689 27.168694
3.1288781 -8.3389168 26.858908
1.300391 -9.5503788 27.15494
3.1515269 -8.5354414 27.028625
1.299709 -9.6748095 27.100122
3.167829 -8.628356 27.16539
1.300707 -9.7713966 27.100058
1.9193929 -8.0659084 27.46586
1.299421 -9.8897934 27.029287
1.301311 -9.951354 27.063423
3.0018749 -7.8809609 27.448231
1.29944 -9.977046 27.004213
2.9437709 -7.8347301 26.841948
1.3014621 -10.12688 27.014421
2.911283 -7.778142 26.51145
2.9243259 -7.8598471 26.627762
2.9268751 -7.9936509 26.616879
2.926162 -8.0333948 26.597942
2.93136 -8.1336432 26.624268
1.29943 -10.453986 26.855577
1.292323 -10.511959 26.639538
2.9363501 -8.3595333 26.61104
1.127007 -9.9027567 27.028269
1.127039 -10.121654 26.96674
0.77754098 -15.660614 24.095818
0.77787298 -15.711611 24.090401
0.77844203 -15.975192 23.993124
0.78525698 -16.214928 24.260159
0.78015101 -16.396299 23.879398
-0.27103299 -16.372057 24.755451
0.77654302 -16.330311 23.707958
0.77246898 -16.249878 23.517262
-0.44514599 -15.795071 25.000565
0.76547003 -16.160959 23.16268
-0.443308 -15.78485 24.89971
0.76233602 -16.106779 23.011864
0.605717 -15.696088 24.143581
-0.445337 -16.013029 24.823139
0.60588002 -15.746011 24.136469
1.792634 -16.183178 23.408007
-0.44587299 -16.061726 24.812243
0.60579699 -15.785885 24.114338
1.774106 -16.099764 23.062277
-0.27740499 -17.070906 24.605785
0.607023 -15.965137 24.135098
-0.44827801 -16.335127 24.716753
0.602732 -16.213133 23.69466
0.60002702 -16.181774 23.493792
0.43519899 -15.536269 24.487984
0.59780598 -16.129091 23.342216
0.434632 -15.543642 24.416105
0.43440399 -15.623069 24.370781
0.43443999 -15.719148 24.350109
0.43431899 -15.758233 24.326363
0.43442801 -15.862034 24.316805
0.434187 -15.937944 24.265448
0.434432 -16.003946 24.281006
0.434187 -16.365582 24.157606
0.433061 -16.328505 24.02482
0.43186101 -16.285292 23.884037
2.477505 -16.198589 23.426069
2.463531 -16.132818 23.257362
2.4500301 -16.070055 23.093775
1.467133 -16.255726 23.821344
1.459213 -16.227085 23.623779
1.443328 -16.090313 23.27714
1.436725 -16.039228 23.129391
1.436662 -16.113752 23.080721
0.085825004 -15.67316 24.597237
0.085620999 -15.720347 24.585234
0.085046999 -15.862055 24.548658
0.084834002 -15.910364 24.537964
0.084611997 -15.959796 24.528833
1.276051 -16.117029 23.349747
0.082557999 -16.294996 24.775358
1.272262 -16.172565 23.196774
-0.089504004 -15.463644 24.845621
0.081258997 -16.592434 24.711767
-0.089985996 -15.520805 24.849182
2.1938119 -16.486389 24.305616
0.081041999 -16.641254 24.699747
-0.090894997 -15.600822 24.88789
2.178046 -16.389931 24.088058
0.080473997 -16.780945 24.653282
-0.091618001 -15.73584 24.840435
1.144071 -16.357189 24.627321
2.152693 -16.286411 23.704287
0.080247998 -16.830919 24.642532
-0.091937996 -15.784445 24.83004
1.148313 -16.475004 24.71612
0.080063999 -16.875122 24.623526
-0.092095003 -15.824264 24.806187
1.146234 -16.4783 24.638544
0.079512998 -17.012396 24.572512
-0.092961997 -15.966869 24.76919
1.1339689 -16.376057 24.247129
0.079232998 -17.069366 24.571056
-0.093303002 -16.016588 24.760015
1.127828 -16.303722 24.063526
0.078837998 -17.16597 24.543442
-0.093625002 -16.098339 24.714788
1.121963 -16.275112 23.863762
-0.094269 -16.195534 24.692514
-0.095471002 -16.292414 24.752407
-0.097116999 -16.50898 24.737358
0.077013999 -17.593801 24.405882
-0.097668 -16.603268 24.708607
0.076784998 -17.643818 24.393539
1.924067 -16.306059 23.803175
1.902311 -16.2064 23.428102
1.891487 -16.137199 23.254164
0.96029299 -16.496298 24.271202
0.93155199 -16.158367 23.166838
0.92702103 -16.092691 22.999668
0.92769903 -16.147297 22.999571
1.622178 -1.12784 15.267804
2.2086191 -1.249361 15.522396
2.2011869 -1.267128 15.462622
2.0983269 -0.80890501 15.42511
2.2833431 -0.980349 16.932968
2.285167 -1.034525 16.944357
2.3473189 -1.57496 16.579506
2.277344 -1.055432 16.878799
1.8441809 -1.955953 17.614441
2.3903489 -1.6686651 16.907852
2.2755079 -1.1067311 16.860329
2.086416 -1.016304 15.3136
2.276051 -1.186131 16.858961
2.4602981 -1.900486 17.432137
2.2778029 -1.266529 16.867096
2.080308 -1.1306781 15.254609
2.07758 -1.1521749 15.23047
2.2129331 -1.762171 15.502843
2.199894 -1.456754 16.209705
2.2124181 -1.4939311 16.309317
2.2334161 -1.5395809 16.477856
2.21173 -2.0266719 15.459276
2.2081089 -2.0462501 15.428039
2.330904 -1.768257 17.25786
2.2355859 -2.1540649 15.629583
2.218009 -2.155535 15.490591
2.226521 -2.2152879 15.548926
2.4241891 -2.0329731 17.997948
2.2230861 -2.2591801 15.515244
2.6106429 -1.30678 15.678208
2.227721 -2.3383579 15.539608
2.679399 -1.432905 16.119658
2.8625269 -1.7624609 17.294779
2.119988 -1.5028861 16.368666
1.6242189 -1.894478 17.536335
2.1537001 -1.5895571 16.652462
2.2362061 -1.83942 17.341888
2.5066941 -1.348121 15.621923
2.3417461 -2.1019731 18.228685
1.4429981 -1.526827 16.548302
1.441305 -1.549987 16.523464
1.929677 -1.311349 15.55651
2.7489481 -1.803113 17.241268
2.777662 -1.909899 17.426823
1.938766 -1.442456 15.627436
2.358007 -1.0108351 15.272679
2.0154569 -2.0222001 15.400544
1.924546 -1.523955 15.489256
2.3613839 -1.1085531 15.289087
2.0265279 -2.1100161 15.48498
2.1070659 -1.756995 17.135025
2.346895 -1.1216201 15.184262
2.028024 -2.1606121 15.490683
2.1248519 -1.831454 17.28978
2.348455 -1.170222 15.191179
2.026968 -2.2074211 15.474727
2.1742749 -1.944827 17.730021
2.0300729 -2.2604849 15.493804
2.191617 -2.0216341 17.880106
2.0355251 -2.2929299 15.536546
2.4033549 -1.333663 15.56988
1.346059 -1.50287 16.591024
1.350829 -1.5633039 16.656218
1.840557 -1.240873 15.613153
1.341395 -1.5723391 16.516464
1.847616 -1.321709 15.67437
2.5944891 -1.701767 16.904284
1.853269 -1.376943 15.724196
2.7546101 -2.016427 18.019726
2.2553861 -1.153559 15.191055
2.56072 -2.5329311 15.838101
2.321836 -1.40016 15.666432
2.3801839 -1.475446 16.096703
1.708555 -1.131669 15.237337
2.3992331 -1.517374 16.235453
2.411541 -2.0459361 15.544944
2.4674749 -1.682199 16.730473
2.4893911 -1.755391 16.886978
1.807734 -1.462247 16.226374
1.828846 -1.538492 16.435825
1.84331 -1.607741 16.57782
2.41873 -2.2731321 15.563291
2.8644221 -2.7155731 15.8804
1.9231859 -1.84268 17.37467
1.929487 -1.905568 17.432587
1.753871 -2.0587511 15.605556
1.824068 23.562265 15.779598
2.846488 23.465309 16.233305
0.82958603 23.525352 16.338327
0.81559002 22.920609 16.072077
0.814098 22.83857 16.066925
0.81230003 22.74522 16.053411
1.639449 23.332804 15.520662
2.762171 22.523954 15.992275
1.77885 22.662882 15.686218
1.64555 23.40633 15.622654
2.747354 22.369873 15.933854
1.771776 22.537203 15.650028
1.648774 23.433262 15.693592
2.7542529 22.404671 16.011734
1.773502 22.486481 15.770734
1.606565 22.679995 15.338214
1.768948 22.396875 15.75915
1.6053669 22.636307 15.359783
1.7703561 22.391779 15.807772
1.606636 22.632107 15.40841
0.826527 23.003323 16.781809
1.607583 22.57287 15.522474
0.65883601 23.647184 15.998369
1.6080281 22.55522 15.561989
1.650571 23.18181 16.105486
1.7827359 22.23303 16.379477
1.64267 22.745743 16.438168
1.609331 22.171206 16.124083
1.6158381 22.247335 16.233072
1.611472 22.12767 16.250708
1.607229 22.0096 16.268887
1.6034499 21.925087 16.258621
1.6180511 22.073284 16.530184
1.634533 22.302006 16.757614
1.465574 23.183126 15.424135
2.5023451 23.379995 16.24649
2.486026 23.190233 16.166494
2.4650109 22.953627 16.052504
1.4542609 22.778727 15.564501
1.445204 22.590414 15.485714
1.453691 22.718662 15.626989
1.4515361 22.604448 15.703551
1.468477 22.883404 15.953066
1.455507 22.625492 15.823196
1.438465 22.219734 15.742586
2.441036 22.35601 16.366816
1.497649 23.222569 16.572561
1.469064 22.662104 16.273895
1.499464 23.175488 16.702715
1.493542 23.016981 16.696239
1.30308 23.029078 15.718808
2.275876 22.645027 15.956883
1.2835031 22.496746 15.609846
1.307405 22.914379 16.061714
1.287178 22.370024 15.937373
2.2773499 22.32806 16.417631
1.2872061 22.345173 15.971987
1.290712 22.391466 16.058161
1.293581 22.372503 16.203238
1.937354 23.656658 15.86272
2.102623 22.263491 16.250576
1.93622 23.590511 15.924649
1.931245 23.498117 15.914979
1.169835 23.440945 16.72566
2.0968909 22.120184 16.303602
1.894178 22.948576 15.643558
1.1660841 23.296492 16.731068
1.891207 22.858601 15.686073
1.156774 23.046057 16.60321
1.159446 23.057007 16.720703
0.98722601 23.330111 16.099171
1.873305 22.394209 15.830094
0.99046099 23.400034 16.201736
1.874797 22.388994 15.878699
0.991817 23.414047 16.26552
1.872625 22.33506 15.892362
0.97821701 22.93314 16.087404
1.880909 22.368658 16.074451
0.97747099 22.885242 16.106676
1.863462 22.112879 15.940947
0.98379999 23.045666 16.274456
0.99684 23.348799 16.654766
1.861258 21.982494 16.054949
1.871668 22.093807 16.189951
1.879023 22.164692 16.295572
-0.383674 -27.141563 21.430239
-0.386673 -27.386072 21.341158
-0.38775399 -27.462299 21.330027
-0.38863099 -27.52899 21.311468
-0.390861 -27.711634 21.241646
-0.391978 -27.78956 21.23086
-0.392856 -27.856293 21.211523
-0.39509001 -28.038948 21.1395
-0.39599699 -28.132107 21.069933
-0.39830199 -28.317812 20.998297
-0.39914799 -28.382908 20.976479
-0.40044001 -28.469103 20.969698
-0.40316001 -28.674366 20.90971
-0.40363199 -28.721575 20.874336
-0.404753 -28.825788 20.810198
-0.40710199 -28.987082 20.785803
-0.40825999 -29.066959 20.772726
-0.40928 -29.166142 20.703772
-0.60202801 -27.894379 20.988117
-0.412011 -29.345732 20.690029
-0.412862 -29.436552 20.61433
-0.60563898 -28.129787 20.885973
-0.414056 -29.518173 20.601152
-0.60741299 -28.218933 20.882118
-0.41620699 -29.669926 20.566319
-0.41740301 -29.777084 20.500561
-0.611673 -28.477032 20.7934
-0.418634 -29.860451 20.48757
-0.61289603 -28.54682 20.774618
-0.420513 -30.024246 20.389772
-0.615753 -28.728609 20.697632
-0.42219201 -30.129332 20.390417
-0.61725402 -28.808224 20.685125
-0.42356199 -30.219473 20.380871
-0.61866301 -28.884598 20.670122
-0.42596301 -30.408228 20.297241
-0.62189502 -29.079491 20.6
-0.42723101 -30.493433 20.283615
-0.62288898 -29.141129 20.574047
-0.428121 -30.560215 20.257805
-0.624623 -29.22909 20.56612
-0.431007 -30.772429 20.186949
-0.627859 -29.424026 20.493597
-0.431968 -30.842569 20.16263
-0.62913197 -29.495573 20.473619
-0.43327299 -30.929577 20.14889
-0.63063699 -29.575403 20.459082
-0.63341397 -29.753761 20.372995
-0.635059 -29.838621 20.361086
-0.63656598 -29.91853 20.345631
-0.639624 -30.1068 20.263882
-0.640576 -30.166712 20.23451
-0.64273101 -30.296642 20.181896
-0.64574897 -30.456615 20.148275
-0.64712 -30.531601 20.127905
-0.64899999 -30.651442 20.067133
-0.65192902 -30.808174 20.029478
-0.65390402 -30.931313 19.969618
0.45214701 -30.436878 20.368402
0.45265901 -30.711128 20.269245
-0.86817598 -30.404211 20.387802
0.45340499 -31.069069 20.151211
-0.88556099 -31.202059 20.137257
0.020227 -28.863165 20.87385
0.016716 -29.48295 20.683224
0.014849 -29.812346 20.561329
0.013299 -30.084822 20.466969
0.012761 -30.175001 20.457613
0.011075 -30.467657 20.372965
0.010622 -30.544586 20.353811
0.010255 -30.60811 20.325754
0.0090490002 -30.81892 20.253639
0.0085180001 -30.907681 20.241129
0.0081169996 -30.976248 20.215477
0.0070799999 -31.160061 20.123621
2.3308451 -3.901403 16.046597
2.1935329 -3.3054979 15.873747
2.3532851 -4.327765 16.117409
2.353071 -4.4030509 16.094889
2.3575461 -4.4385171 16.121468
2.3614581 -4.4981418 16.136459
2.111948 -3.5664611 15.967517
1.810397 -5.5712199 16.457867
1.9962651 -3.3084531 15.870846
1.997717 -3.336344 15.878527
2.0219941 -3.588923 16.04998
2.021421 -3.713238 16.016115
2.3218479 -5.3510451 16.414551
2.1754019 -4.549799 16.284678
1.706136 -5.5700169 16.468214
2.3248961 -5.3852029 16.429804
2.1697509 -4.6625662 16.201632
1.779736 -2.8424201 15.75046
2.0630579 -4.320394 16.256346
2.8398399 -5.245645 16.390984
2.7040689 -4.6356978 16.363981
2.8361011 -5.2888212 16.350721
2.68664 -4.6511722 16.234699
2.8408141 -5.3248572 16.371555
2.8497131 -5.4731498 16.383549
1.805009 -3.2452979 15.936807
2.063482 -4.6268978 16.175518
1.799305 -3.257 15.874814
2.0688379 -4.6669888 16.214987
1.79962 -3.282589 15.872904
1.802916 -3.365051 15.890114
2.2216749 -5.525506 16.402802
2.316107 -6.2524052 16.040449
2.223881 -5.635241 16.385582
1.942102 -4.244205 16.087166
2.215929 -5.7391381 16.2763
1.949067 -4.3392091 16.131723
1.947288 -4.3848648 16.101437
2.219507 -5.8527002 16.268728
2.1189771 -5.2736068 16.509949
2.7503691 -5.5339551 16.412966
2.2278039 -6.0071869 16.289055
2.1164119 -5.3953118 16.44598
2.1111889 -5.456604 16.375353
2.219332 -6.1327291 16.163389
2.1120491 -5.53649 16.356789
2.229224 -6.2929711 16.193838
2.1168649 -5.680388 16.354164
1.842047 -4.2456841 16.094168
2.2117541 -6.2594428 16.044153
2.2139571 -6.29214 16.051937
1.992238 -5.027626 16.368517
2.219671 -6.3874569 16.067568
2.1123929 -5.8452721 16.252714
2.1091249 -5.9109769 16.197069
1.387634 -5.5317798 16.421862
2.789079 -6.3258591 16.405537
1.388358 -5.5614648 16.423721
2.0234599 -5.5417681 16.521523
2.760164 -6.4784842 16.130301
2.3351951 -7.5419192 15.649735
2.22439 -6.857482 15.917278
2.22224 -6.9496918 15.856815
2.023483 -6.1361918 16.311825
2.7284639 -7.0374169 15.651212
2.2243919 -7.4792142 15.63504
2.748071 -7.377068 15.605171
2.748354 -7.475872 15.559341
2.7453389 -7.5152731 15.516811
2.7377729 -7.6127658 15.410125
2.5362229 -6.6074839 15.954833
2.5347481 -6.653019 15.923613
2.5354099 -6.7050648 15.906681
2.541944 -6.7502251 15.940612
1.916743 -7.3978238 15.719361
2.9016221 -8.795392 15.200407
2.9049859 -8.8787909 15.176906
2.9049039 -8.9023647 15.16227
2.9063179 -8.9311562 15.155981
2.9069879 -9.0049973 15.116692
2.517895 -10.145819 14.781583
2.9568441 -9.3018951 15.321589
1.641387 -9.531353 15.12421
2.9445331 -9.5444422 15.072934
1.639665 -9.5673094 15.076244
2.9181399 -9.4707947 14.912805
1.763456 -10.327593 14.796968
2.3005259 -9.7378807 15.077807
1.772366 -10.695784 14.667559
1.774321 -10.779925 14.635438
1.7747411 -10.806295 14.622534
1.776343 -10.841202 14.620607
2.818161 -9.5455914 14.939787
1.779986 -10.937571 14.603363
1.78125 -10.970084 14.598017
2.360966 -10.459465 14.078506
2.911742 -10.094004 14.440655
2.2558091 -10.048892 14.399762
1.438244 -9.5925436 15.322033
1.427532 -9.5527697 15.159248
2.232908 -10.154661 14.079902
2.231544 -10.214197 14.021921
2.2369311 -10.265073 14.042934
2.2343421 -10.27348 14.008821
2.19134 -10.186738 14.784017
2.164912 -10.182578 14.49115
1.674288 -11.36009 14.368029
2.164166 -10.270107 14.420916
1.675142 -11.390039 14.358667
2.1759689 -10.358061 14.49159
1.280165 -9.4902363 15.180109
2.1741409 -10.439555 14.412349
1.956632 -9.3120441 15.156394
2.5949509 -9.5237637 14.911184
2.1834991 -10.537494 14.44758
2.5950711 -9.57127 14.881422
2.183115 -10.58109 14.41145
1.95883 -9.4203434 15.116435
2.17871 -10.579157 14.362639
1.950265 -9.3956575 15.027764
2.693639 -10.083651 14.44471
2.172296 -10.58845 14.282379
1.950314 -9.4435139 14.998416
2.6811149 -10.075452 14.339963
2.2107949 -10.851938 14.528058
2.6729741 -10.085547 14.260838
1.9569449 -9.5765858 14.995478
2.6654029 -10.09775 14.184919
1.956284 -9.5965271 14.974774
2.6628461 -10.10902 14.154118
1.957083 -9.6485834 14.951406
1.96426 -9.737772 14.982062
1.565855 -11.380614 14.400317
2.664156 -10.292684 14.031355
1.964251 -9.8561983 14.904897
2.6695731 -10.338755 14.045768
2.6719661 -10.371502 14.042882
2.6816361 -10.480995 14.047787
1.977311 -10.287772 14.777038
1.97588 -10.302469 14.748924
1.565155 6.0765901 23.111151
1.581163 5.9621978 23.435019
2.2259569 6.1846218 22.510077
2.499687 5.62464 24.150667
2.5233669 5.5265932 24.436586
2.5269711 5.4965181 24.48366
2.5443571 5.4577842 24.684965
2.990999 5.694066 22.040215
2.99823 5.6735821 22.106459
3.0061159 5.6196609 22.186766
2.1238141 5.9834251 23.045809
2.425755 5.3280759 25.102566
1.271001 6.1650829 22.855488
2.1449261 5.8999701 23.338678
1.27398 6.1458788 22.930462
2.9025631 5.6982799 22.472252
2.2639589 5.4644132 24.966188
1.997242 5.9431758 23.271955
2.8131289 6.0333848 22.852776
2.014235 5.850173 23.531757
2.0390289 5.7401652 23.902845
2.8041501 5.6943688 22.856876
2.0574911 5.6442642 24.181561
1.808303 6.190609 22.512709
2.811763 5.6743779 22.932991
1.81385 6.1756701 22.601089
2.8696971 5.7561641 23.452749
2.8652339 5.601243 23.449203
2.855046 5.544836 23.368113
2.891804 5.321312 23.761992
1.868522 5.8628669 23.512257
0.99614203 6.0410218 23.094824
1.620517 6.2122111 22.506824
2.4697061 6.2979412 22.146706
1.634258 6.1255159 22.757961
2.7544949 5.6083641 23.774853
1.943567 5.4548321 24.723709
1.651549 6.0164809 23.083517
2.7860401 5.6352382 24.078543
1.9744641 5.4272218 25.191607
1.967775 5.3300261 25.113302
1.9893039 5.2318258 25.45561
1.6851929 5.817574 23.709478
2.557529 5.953794 23.16296
1.990797 5.1566548 25.49427
2.584902 5.8363891 23.479319
2.6462221 5.6770501 24.158319
2.6656621 5.6055088 24.377569
2.6674831 5.5334678 24.413343
2.6890719 5.4636259 24.653675
2.2615449 13.942496 17.318296
2.1487329 14.012393 17.547462
2.15289 14.014424 17.606638
2.145025 13.711712 17.72666
2.136811 13.489391 17.776682
2.0093169 14.054131 17.420952
1.878062 13.968983 17.514696
2.824604 12.182421 17.634014
2.822628 12.146065 17.63941
2.6127951 13.736833 16.993519
2.819129 11.965057 17.72657
2.8432741 12.017218 17.927519
2.8466721 12.004418 17.969128
2.8332119 11.888933 17.913946
2.83512 11.841602 17.963499
2.7718439 12.807935 17.989689
2.831743 11.546313 18.119886
2.8361139 11.508376 18.185366
2.4798169 13.708177 16.986452
2.8373079 11.4852 18.21134
2.4766729 13.663296 16.983936
2.8392069 11.40802 18.277164
2.4678881 13.532441 16.980452
2.8406451 11.385674 18.304712
2.648078 13.113556 17.865473
2.837929 11.345846 18.303335
2.647398 13.082223 17.880657
2.8383591 11.262025 18.358335
2.53511 13.788175 17.592621
2.5401089 13.789638 17.651712
2.5442729 13.786142 17.704514
2.593668 12.582082 17.64275
2.536525 13.658904 17.708752
2.590338 12.537575 17.637449
2.5373459 13.636052 17.736015
2.5333619 13.585796 17.726578
2.8090429 10.856407 18.322716
2.5450361 13.568816 17.878326
2.7691979 10.666903 18.0585
2.516196 13.378209 17.678019
2.514935 13.315876 17.709188
2.7681229 10.550068 18.116028
2.5096791 13.231382 17.70962
2.4960859 13.127939 17.625116
2.505265 13.123922 17.736181
-0.24549 -11.084508 26.375881
-0.245634 -11.125675 26.357773
-0.246121 -11.251564 26.308504
-0.246297 -11.293444 26.291958
-0.246409 -11.333656 26.271696
-0.24718399 -11.466653 26.237799
-0.24736001 -11.508436 26.220905
-0.247578 -11.589524 26.181442
-0.248312 -11.683043 26.168945
-0.24868 -11.729817 26.162573
-0.24857999 -11.802173 26.104334
-0.249476 -11.899939 26.100103
-0.249919 -11.986671 26.072042
-0.25009701 -12.028226 26.054316
-0.25077099 -12.119991 26.03665
-0.25105599 -12.202213 25.998873
-0.25123301 -12.243666 25.980799
-0.252112 -12.378665 25.947638
-0.25229099 -12.420048 25.929279
-0.070574999 -10.884712 26.634085
-0.070111997 -11.194042 26.326929
0.099335998 -12.047358 25.744057
-0.069686003 -11.24938 26.229982
0.099160999 -12.092807 25.735195
-0.070321001 -11.311588 26.259045
0.098793998 -12.215062 25.679436
-0.070628002 -11.432886 26.199738
0.098618001 -12.260477 25.670279
-0.070795 -11.475429 26.184704
0.098474003 -12.302316 25.653885
-0.070863999 -11.513789 26.160511
-0.071505003 -11.648894 26.131105
-0.071672 -11.691356 26.115721
-0.071897998 -11.736341 26.1057
-0.072443999 -11.867119 26.066105
-0.072631001 -11.910365 26.05217
-0.072819002 -11.953598 26.03816
-0.073267996 -12.079848 25.988466
-0.073633 -12.130867 25.990372
-0.073697999 -12.205027 25.936361
-0.074290998 -12.300956 25.927019
-0.074400999 -12.340521 25.90519
-0.074822001 -12.43036 25.882792
2.502058 8.7911043 15.620999
2.497165 8.74895 15.601037
2.5040491 8.7499018 15.661444
2.5574961 8.8702812 16.06732
2.55721 8.8443241 16.078934
2.5533209 8.3021116 16.327
2.555079 8.2827139 16.351973
2.5531709 8.1746044 16.388905
2.8819101 8.4781923 15.422823
2.871577 8.4230213 15.376011
2.871244 8.3981619 15.386919
2.883296 8.3623066 15.494919
2.888114 8.3526144 15.535626
2.8847411 8.2942181 15.541256
2.9071901 8.1162481 15.797172
2.798532 8.3880711 15.649747
2.078357 9.0258436 15.554532
2.957643 7.6554461 16.383757
2.9594221 7.6347122 16.406054
2.841953 8.0500431 16.151917
2.9015889 8.1733608 16.542482
2.910125 7.6002431 16.872002
2.912662 7.5546331 16.911047
2.618314 8.2822933 15.990932
2.8231859 7.960331 16.905357
2.6286659 8.2414837 16.097412
2.823426 7.9347949 16.919085
2.6318409 8.2268658 16.131136
2.6342139 8.2095556 16.159506
2.6702061 8.2243681 16.449707
2.824584 7.753551 17.010338
2.8730869 7.8363481 17.35017
2.6655321 8.1072483 16.468269
2.8308811 7.6918631 17.086876
2.8249569 7.6222601 17.071472
2.8388331 7.607347 17.185505
2.8357 7.5452809 17.188019
2.836215 7.52001 17.20294
2.800492 7.6605339 17.769215
2.8084459 7.6274729 17.84705
2.8163731 7.5941119 17.9249
2.819 7.5735722 17.95462
-0.209084 16.520895 25.403168
-0.207452 16.336578 25.375813
-0.20634501 16.253357 25.331434
-0.205795 16.191509 25.320778
-0.41429499 17.725563 26.177713
0.69060898 16.835979 25.652037
-0.62344402 19.069357 26.275566
-0.39828801 16.831467 25.785366
-0.62118602 18.936255 26.262375
-0.39979199 16.789473 25.897753
-0.61881298 18.800085 26.243752
-0.395331 16.587637 25.758223
-0.61738402 18.685844 26.255629
-0.391543 16.362823 25.668325
-0.61276901 18.459171 26.19206
-0.38947099 16.226519 25.628429
-0.387638 16.136999 25.573423
-0.60409498 18.062922 26.052282
-0.59858799 17.861673 25.930408
-0.593611 17.590618 25.876766
-0.582708 17.113503 25.679655
-0.57815498 16.855268 25.633078
-0.569969 16.482456 25.489761
0.329548 17.482283 25.856453
-0.56721097 16.385078 25.423716
-0.56595498 16.278957 25.431532
0.32805699 17.086113 25.693766
0.32845101 17.10704 25.813896
0.32776499 16.933912 25.723583
0.32697299 16.751907 25.617344
0.144784 17.488459 25.791359
0.145123 17.163963 25.737494
-0.043049 17.87797 26.040983
-0.039276 17.280903 25.847752
-0.038183998 17.081011 25.806427
-0.035712 16.704428 25.663885
-0.034226999 16.438116 25.598513
-0.121019 3.330605 22.584776
-0.122647 3.2726951 22.695082
-0.123756 3.2458839 22.769056
-0.12687699 3.1625659 22.978849
-0.128251 3.1369741 23.070578
-0.12994701 3.1136329 23.184132
-0.248567 3.3080239 22.185863
-0.24902201 3.275739 22.208275
0.287231 4.617734 22.822309
0.28710899 4.5799351 22.817135
0.28691101 4.5050192 22.810486
0.28748301 4.4077029 22.681925
0.287393 4.337471 22.698357
0.28722399 4.2969279 22.674982
0.28648999 4.1963248 22.511686
0.28665301 4.1390972 22.602425
0.286504 4.0999141 22.584618
0.285806 3.937459 22.473166
0.28564399 3.898046 22.451059
0.28501001 3.772038 22.330902
0.28480101 3.730937 22.294666
0.28466499 3.693202 22.280115
0.28436199 3.5833459 22.257809
0.28417999 3.543817 22.229145
0.28407699 3.5077369 22.224178
0.283739 3.397094 22.191046
0.28368101 3.363003 22.199715
0.28387901 3.3391731 22.285648
0.28423801 3.255825 22.46393
0.284394 3.229563 22.537857
0.284587 3.170615 22.639931
0.28510299 3.124295 22.851107
0.28533399 3.0997059 22.948725
0.28552899 3.038964 23.05246
3.139689 -8.6855202 23.73473
3.1369381 -8.8263302 23.65856
3.1412539 -9.2128153 23.554482
3.135267 -9.5628939 23.361937
3.125308 -9.5653801 23.267832
3.127939 -9.68468 23.244143
3.124613 -9.7097216 23.202789
3.124716 -9.7467184 23.188667
3.125289 -9.8585148 23.14772
3.1205909 -9.8783121 23.09531
3.1215169 -9.9545517 23.071856
3.1169231 -10.010788 23.004824
3.1170261 -10.047498 22.990215
3.116102 -10.189206 22.920355
2.8297479 -9.3485413 23.454945
2.844322 -9.488513 23.480122
2.851398 -9.7008772 23.469007
2.841393 -10.140192 23.181374
2.8452761 -10.229209 23.184162
2.849189 -10.318464 23.186583
2.850924 -10.362233 23.185884
2.685447 -9.7365808 23.318916
2.6857221 -9.7745504 23.306568
2.6846421 -9.806881 23.281408
2.687324 -9.9651155 23.24567
2.6868241 -9.999733 23.225689
2.686712 -10.109257 23.178068
2.6867931 -10.146232 23.163298
2.6882291 -10.18901 23.161125
2.6900511 -10.306648 23.13065
2.6910989 -10.347778 23.124577
1.760874 13.160794 23.854713
1.74575 12.88929 23.703384
1.756452 12.939614 23.889177
1.746933 12.603756 23.882118
1.557168 11.826104 23.633091
2.191344 12.753741 23.303972
2.187253 12.547253 23.35466
2.2265739 12.344229 24.054783
2.09883 10.558305 23.035185
2.051682 12.079027 23.963123
1.841621 12.995208 23.57239
2.0782671 10.376151 22.816977
1.829993 12.832162 23.44459
1.837617 12.854554 23.575214
1.855401 12.880355 23.893578
1.857421 12.858762 23.943287
1.99247 11.269358 23.408836
1.847975 12.41667 24.004627
1.825528 12.214501 23.695196
1.978493 10.822678 23.398613
1.978987 10.789368 23.422312
1.823346 11.793314 23.871126
1.9635921 10.410029 23.351528
1.9510109 10.30225 23.200302
1.9611109 10.287201 23.367332
1.808396 11.430287 23.77824
1.795369 11.230093 23.637899
1.767856 10.49879 23.484133
1.8092279 -11.431761 26.328726
1.632975 -10.971708 26.407347
1.635378 -12.504365 25.853308
1.4639651 -11.80656 26.169563
1.464119 -11.97677 26.106577
1.4634351 -12.180301 26.008329
1.473739 -12.496202 26.13562
1.473853 -12.539674 26.120647
1.2914 -11.570521 26.247606
1.290135 -11.598952 26.201494
1.2872241 -11.608818 26.115446
1.302617 -11.816952 26.241671
1.300527 -11.835808 26.175375
1.300699 -11.88007 26.163309
1.3005691 -12.005161 26.110401
1.127566 -11.027974 26.440247
1.1277291 -11.158269 26.400558
1.126579 -11.909666 26.091211
1.926499 -11.488941 26.329517
1.925541 -11.524237 26.298048
1.926242 -11.571099 26.291946
1.927079 -11.702623 26.253183
1.928254 -11.752863 26.254004
1.134292 -12.440904 26.146605
1.9280061 -11.792993 26.233025
1.133998 -12.564223 26.087408
1.928592 -11.964399 26.171906
1.928581 -12.006103 26.154205
-0.40823099 -2.1180749 29.484556
-0.229214 -3.0087619 29.071842
-0.40734199 -2.251169 29.414576
-0.40729699 -2.3417799 29.392166
-0.407123 -2.4320049 29.365459
-0.22922499 -3.2311001 29.006451
-0.406611 -2.6108971 29.3013
-0.40622401 -2.834775 29.230997
-0.22909699 -3.627919 28.874926
-0.40592301 -3.0582049 29.162947
-0.406212 -3.5080521 29.063316
-0.226368 -4.3418279 28.449318
-0.22851001 -4.4949818 28.540913
-0.228595 -5.0127959 28.357016
