# .PCD v0.7 - Point Cloud Data file format
VERSION 0.7
FIELDS x y z
SIZE 4 4 4
TYPE F F F
COUNT 1 1 1
WIDTH 1573
HEIGHT 1
VIEWPOINT 0 0 0 1 0 0 0
POINTS 1573
DATA ascii
1.370613 3.775775 29.692175
0.91363102 5.1798148 25.57217
2.171844 4.2755089 28.343803
1.391778 3.6964941 30.256081
0.918248 5.091888 25.769463
2.1918631 4.180788 28.654598
2.7463739 5.0299282 25.34079
1.395479 3.659708 30.358604
0.92054898 5.0673432 25.863379
2.1984739 4.1485329 28.757492
2.7443371 4.9867768 25.32848
1.401119 3.6278961 30.510771
0.92306399 5.0439291 25.965151
2.2033069 4.1126781 28.834625
0.92864603 4.9589791 26.197491
2.2263229 4.0186968 29.188507
0.93099701 4.9334221 26.293287
2.2311521 3.9817171 29.26549
0.93340099 4.9079132 26.391037
2.2403581 3.9520929 29.405827
0.93956798 4.8229198 26.644705
2.2204151 3.7812459 29.136826
0.94191498 4.7959638 26.740402
2.2331741 3.756819 29.328491
0.94447798 4.770009 26.843975
2.825536 4.6038542 26.240463
0.94988 4.6766591 27.069637
2.8256509 4.563169 26.249027
0.96456403 4.505517 27.664469
0.96653199 4.430202 27.754379
0.97282398 4.377358 28.004446
0.975591 4.3484049 28.115601
0.97900897 4.2784429 28.258572
1.855336 -7.65417 10.134632
1.850247 -7.6447682 10.091138
1.852198 -7.670383 10.090733
1.846248 -7.688148 10.017185
2.5130949 -7.6622639 9.6464643
2.512116 -7.7340159 9.5795622
1.79726 -7.774467 9.4480314
1.7954431 -7.7798162 9.4247313
2.5048671 -7.7819099 9.4854174
1.789757 -7.7943692 9.3533468
1.787439 -7.7968512 9.3271217
1.784869 -7.7979441 9.2994366
1.78069 -7.8196368 9.23701
1.3286999 -7.914885 9.081934
1.778121 -7.8204961 9.2093735
1.776808 -7.8279858 9.1890726
1.770622 -7.838201 9.1150131
1.7688071 -7.8428001 9.0918169
1.767244 -7.8486962 9.0700808
1.762063 -7.8635039 9.0019646
1.758994 -7.861043 8.9715796
1.695061 -7.6211672 10.120646
1.758184 -7.87077 8.9542065
1.712765 -7.7344999 10.228276
1.707587 -7.7542109 10.155814
2.1951201 -7.9455862 10.116728
1.693864 -7.6941428 10.050866
2.201026 -7.986732 10.133757
0.82592499 -8.0563774 9.3020554
1.690341 -7.7062602 10.002274
2.2128501 -8.0693693 10.167462
0.82124001 -8.0213022 9.2064362
2.210638 -8.0917358 10.13017
2.2147529 -8.1254082 10.137764
2.2113619 -8.1425838 10.094315
1.607586 -7.464376 10.12972
1.607527 -7.4800091 10.117292
1.303365 -8.1652336 8.4693441
1.724694 -7.9747372 8.494997
1.720276 -7.9899201 8.4315834
1.718716 -7.9943752 8.4100027
1.613058 -7.7184639 9.9978962
1.611703 -7.726294 9.9758682
2.3703229 -7.8668299 10.209497
1.606515 -7.7585201 9.8892384
2.1271031 -8.163434 10.045315
1.6343319 -7.8270249 9.2692575
2.1273291 -8.1802311 10.033283
1.634275 -7.8413062 9.2562571
2.1272681 -8.195713 10.019729
2.45139 -8.338131 7.6621971
1.62843 -7.8505249 9.1805172
1.627463 -7.8592768 9.1616364
2.0066481 -7.6486659 10.090664
1.623996 -7.8531461 9.1267071
2.00384 -7.6516962 10.062609
1.230003 -8.1386557 8.4786673
2.4376149 -8.3411617 7.5461192
2.348814 -7.9621119 9.0067692
1.6227 -7.8885899 9.0802183
2.0231349 -7.8421588 9.3755388
1.992409 -7.6466188 9.9616966
1.223122 -8.1205759 8.3826189
1.617641 -7.872683 9.0352201
2.01019 -7.7972212 9.2961273
1.991801 -7.659461 9.9459276
1.61754 -7.9006109 9.0090151
2.0072241 -7.8127289 9.2554493
1.987025 -7.6686869 9.8945246
2.4271319 -8.3565464 7.4417448
2.3306961 -7.9574108 8.8638096
2.2721031 -7.7006388 9.5452681
1.643989 -8.0296183 8.3437138
1.6121989 -7.896874 8.949605
2.0025289 -7.8199639 9.2059994
1.981414 -7.6737242 9.838645
1.643217 -8.0381708 8.3262434
1.612824 -7.9147611 8.9408112
1.999036 -7.8181701 9.1754303
1.994267 -7.7488642 9.8971128
1.6404901 -8.0481577 8.2843466
1.60795 -7.913527 8.8843384
1.996644 -7.8358541 9.1377106
2.0029531 -7.8204808 9.9196606
2.416651 -8.3708324 7.3375831
2.3228259 -7.9937911 8.7651377
2.2796521 -7.8066492 9.5181618
1.637037 -8.0535412 8.2383804
1.606474 -7.93258 8.8494558
1.992522 -7.8452148 9.0912666
2.014097 -7.9037638 9.9554596
1.63455 -8.0645943 8.1979036
1.602283 -7.93502 8.7973871
1.990989 -7.8665962 9.0578861
1.635689 -8.084384 8.1913691
1.601546 -7.9444008 8.7799416
2.021605 -7.9600658 8.5697012
1.986353 -7.8589878 9.0216188
2.4061739 -8.3840303 7.2336431
2.305378 -7.9887791 8.6258936
2.267797 -7.831388 9.3984089
1.595981 -7.9380388 8.71947
2.0197079 -7.9779968 8.5348902
1.982233 -7.8678269 8.9752493
2.019031 -8.0051241 9.9180107
1.117291 -8.0231819 9.1750517
1.630945 -8.1072187 8.111762
1.596563 -7.9691572 8.6973028
2.0142469 -7.9790359 8.4833288
1.979556 -7.8833609 8.9360819
2.009587 -7.9915638 9.8406124
1.1187789 -8.0665493 9.1643763
2.0144899 -7.9934888 8.4714756
1.97721 -7.8862481 8.9114742
2.004035 -7.9806581 9.7975264
1.110911 -8.0068712 9.0725203
2.396064 -8.3976793 7.131156
2.296854 -8.0199747 8.524703
2.256258 -7.8560781 9.2803106
1.625486 -8.1250172 8.0281372
2.0083799 -8.004324 8.4039574
1.972761 -7.9069819 8.8505878
2.0059431 -8.0059052 8.3796415
1.9707021 -7.9110308 8.8274422
1.6225131 -8.1321259 7.9850292
2.0044 -8.0116882 8.3594742
1.968357 -7.9136572 8.8028765
2.3793869 -8.3823128 7.0071731
2.0012691 -8.0360394 8.3057938
1.964481 -7.9364629 8.7448664
1.911175 -7.7194519 9.8710356
1.617057 -8.1488466 7.9015479
1.997046 -8.0288086 8.2733088
1.962136 -7.9388871 8.7203283
1.906647 -7.7130432 9.8323536
1.998183 -8.047245 8.2654524
1.958648 -7.9357309 8.6901321
1.903697 -7.7141819 9.802825
2.3743939 -8.4155407 6.9220748
1.612795 -8.1722479 7.8247991
1.538278 -7.94841 8.9002066
1.990291 -8.0480576 8.18997
1.955346 -7.960639 8.6349792
1.897752 -7.7313962 9.7309599
1.536499 -7.9511199 8.8755083
1.988748 -8.0534458 8.1698351
1.95243 -7.960021 8.6076708
1.89454 -7.7309861 9.6999798
1.609109 -8.1740198 7.7778511
1.5351501 -7.9565248 8.8536921
1.985122 -8.0487051 8.1402206
1.950372 -7.9635148 8.5846081
1.892642 -7.7369342 9.6765671
2.3719139 -8.4695721 6.8311172
1.528747 -7.9573679 8.7725163
1.9822921 -8.0732527 8.0879374
1.9453551 -7.9794059 8.5210409
1.884859 -7.7442288 9.5943012
1.527184 -7.9611721 8.7493162
1.9786659 -8.0682812 8.0584002
1.943012 -7.9813008 8.4966087
1.88375 -7.7538328 9.5754242
1.5256211 -7.9649239 8.7261238
1.978613 -8.0806561 8.0450163
1.941241 -7.9859462 8.4749842
1.878436 -7.742619 9.5325689
0.74769199 -8.5779877 8.7575188
1.523527 -7.9927139 8.6735878
1.97251 -8.0886221 7.977984
1.874598 -7.7684789 9.4729509
0.74829698 -8.6315298 8.7271957
1.522396 -7.9990749 8.6532393
1.973647 -8.1067114 7.969903
1.8721761 -7.7713051 9.4466257
0.74738801 -8.6304007 8.6992273
1.5968651 -8.2307863 7.5641251
1.520143 -8.0117941 8.6125088
1.969682 -8.1122532 7.925674
1.870497 -7.7926469 9.4118109
0.74728298 -8.657259 8.6706247
2.2390399 -8.1053286 7.944746
2.1985691 -7.9729571 8.6795607
1.515942 -8.0115719 8.5591526
1.966005 -8.1189442 7.8828492
1.864866 -7.7939649 9.3547649
0.839477 -8.5191078 7.2830539
1.135419 -8.2388401 7.976109
1.513949 -8.0120697 8.5332098
1.963274 -8.1178093 7.857482
1.8640209 -7.8044181 9.3373699
0.83866501 -8.5193071 7.2602711
0.73928303 -8.5623331 8.5026798
1.51342 -8.0355921 8.5037527
1.9616899 -8.1346588 7.8239102
0.83856899 -8.5416441 7.2320251
0.74054098 -8.6120949 8.4959459
1.1330841 -8.2547979 7.9164662
1.510512 -8.0433121 8.458909
1.956229 -8.1320314 7.773273
0.83705598 -8.5433216 7.1877398
0.73719603 -8.5821629 8.4161816
1.507615 -8.0509596 8.4140615
1.955538 -8.1530228 7.743628
0.73726398 -8.6110878 8.390419
1.129449 -8.2704706 7.8325958
1.506484 -8.0567808 8.3937531
1.952213 -8.1485682 7.7157402
0.73652703 -8.612134 8.3654413
1.5035779 -8.0640116 8.3489857
1.9515131 -8.16924 7.6860929
1.428866 -7.8772802 9.4819622
1.170399 -8.3504372 7.2247429
0.73190898 -8.5591173 8.2660608
1.502403 -8.0826206 8.3152628
1.946658 -8.1690331 7.638196
1.4218529 -7.8589058 9.4022331
0.72823799 -8.5220718 8.1817179
1.5004129 -8.0824986 8.2894468
1.946308 -8.1792517 7.6233559
1.430626 -7.9344459 9.4574223
0.72614402 -8.498847 8.1356897
1.12493 -8.3016386 7.7148352
2.7660649 -7.710566 9.7388783
1.497894 -8.1049318 8.2340288
1.941402 -8.1903639 7.5619798
1.425092 -7.9408622 9.3764057
0.72199601 -8.4659996 8.0312071
1.496119 -8.1060457 8.2096272
1.941945 -8.2049646 7.550971
0.71514499 -8.358367 7.9115329
1.494344 -8.1071043 8.1852417
1.938324 -8.1984777 7.521975
2.2497749 -8.3616209 6.8014178
2.204036 -8.1912861 7.5400782
1.491181 -8.1245756 8.1257505
1.9346091 -8.2149954 7.4657989
1.489622 -8.1268864 8.102767
1.9312871 -8.2097912 7.4381738
1.488923 -8.134964 8.0852184
1.932127 -8.2257357 7.4283762
1.40245 -7.8850031 9.1138811
2.2498801 -8.415102 6.7331619
1.4859771 -8.1532745 8.0271034
1.926927 -8.2340841 7.3658929
1.403253 -7.9339452 9.0817471
1.158896 -8.424262 6.9233379
0.71205097 -8.4200211 7.7458611
1.925984 -8.2407999 7.3484602
1.815631 -7.925571 8.7375469
1.209936 -8.5254068 6.4980149
1.1581759 -8.4285269 6.904532
0.71386498 -8.4653397 7.7604489
1.482644 -8.15592 7.9798722
1.922959 -8.236804 7.3222098
1.815577 -7.9390111 8.7243795
1.157456 -8.4327555 6.8857279
0.715509 -8.5076828 7.7723231
2.2367499 -8.418067 6.6060748
1.479915 -8.1750679 7.9231439
1.92222 -8.2674532 7.2786541
1.808861 -7.944634 8.6493196
0.712304 -8.4884863 7.6836319
1.80907 -7.9593258 8.637536
1.154417 -8.4478312 6.8093081
1.80849 -7.9698238 8.6214924
1.154534 -8.4598303 6.7965188
2.12484 -8.105442 7.8836298
1.801777 -7.9746819 8.5465593
1.152384 -8.4718809 6.7401128
1.800411 -7.9808149 8.5263014
1.152167 -8.4805803 6.7248979
1.471343 -8.2154369 7.7639489
1.8336639 -8.0630617 8.0399046
1.7969019 -7.988862 8.4815559
1.1504019 -8.4852018 6.6849241
2.118654 -8.1379118 7.7910929
1.831093 -8.0746059 8.0010462
1.793908 -7.999404 8.4396667
1.8291219 -8.0766678 7.9782701
1.791755 -8.0010767 8.4152498
1.148412 -8.4980736 6.6297908
1.827109 -8.0910158 7.94206
1.1474839 -8.5103664 6.5957451
1.146215 -8.5191689 6.5593891
0.997697 -8.2484207 8.0374908
1.796438 -8.105691 8.36133
1.145455 -8.5328226 6.5264878
0.99707103 -8.2672653 8.0047369
1.144235 -8.5314341 6.5042529
2.157999 -8.3298416 6.9474521
0.99545699 -8.2876701 7.9489422
0.56748599 -8.0349016 7.9235482
0.996683 -8.3271046 7.934639
0.64614898 -8.5890646 7.7411981
0.57258201 -8.1711187 8.0233669
0.99385297 -8.307869 7.8930931
2.1478691 -8.3358021 6.842381
1.3698061 -8.1215544 8.4322186
0.91085398 -8.2095509 8.2875767
1.371285 -8.1459427 8.4298277
0.91126603 -8.2280893 8.279438
1.363952 -8.1045179 8.3637161
0.90946603 -8.2189913 8.2452669
2.1420269 -8.3611727 6.7530112
0.98723698 -8.3333015 7.721096
0.90803498 -8.2409658 8.1892929
1.358386 -8.1155996 8.2712421
1.760267 -8.0997829 7.9758291
0.90681797 -8.2389116 8.162034
1.760215 -8.1120253 7.9623842
0.906416 -8.2470484 8.1442957
2.1322341 -8.3666325 6.6496062
2.6214981 -8.0698719 6.8490729
1.7550859 -8.1208954 7.8965268
0.90428901 -8.2596054 8.0802164
1.753462 -8.1242027 7.875051
2.6116209 -8.097146 6.7407498
1.7472349 -8.1385756 7.7905202
0.90147603 -8.2889242 7.9820442
0.89819998 -8.3112736 7.8785911
0.57197899 -8.4765501 7.7053289
0.89642602 -8.3266087 7.8186789
2.1830239 -8.6576881 5.721777
2.0614021 -8.336585 7.0057869
2.1699679 -8.6388054 5.612143
2.053365 -8.3510284 6.9062481
2.7155859 -8.5639696 6.1206799
0.68796802 -8.6977053 6.5755801
0.68762398 -8.7129631 6.5433178
0.68715298 -8.7147427 6.523201
2.0465779 -8.3707323 6.8116932
2.7175291 -8.6186857 6.0549541
1.505119 -8.6291103 5.7884378
2.0410409 -8.3958216 6.7219791
2.0336349 -8.4105072 6.6252441
1.49892 -8.6841326 5.6058769
2.029038 -8.4386187 6.5391169
2.1557231 -8.9516964 6.0626531
2.0658541 -8.690032 6.5911398
2.0665519 -8.7451038 6.5224481
2.0720119 -8.6165552 5.6550751
2.062577 -8.7752399 6.4364929
2.057981 -8.8013229 6.3482399
2.5969651 -8.5946426 5.9326811
2.0518279 -8.8183622 6.2544932
2.600076 -8.6529055 5.8697429
2.0475471 -8.8444223 6.1673412
2.0398419 -8.8514023 6.0684071
1.329985 -8.5618849 6.2293639
2.55546 -8.6089773 6.4269018
1.9854341 -8.6068106 5.8115449
2.4548421 -8.559269 6.5195432
1.637262 -8.5747519 5.8896089
1.260903 -8.6126842 6.0988069
2.4611089 -8.6362448 6.4675951
2.4272821 -8.5304403 6.2889938
1.633581 -8.623497 5.7219281
2.4293571 -8.5880232 6.2247262
1.648774 -8.7755718 5.696631
1.654489 -8.8215513 5.7046781
2.4188049 -8.5912399 6.1240058
2.4254341 -8.6766958 6.05762
2.420789 -8.7498741 5.9016781
-0.14109001 3.087359 23.938059
-0.142938 3.0630579 24.06155
-0.144436 3.035799 24.161165
-0.14802299 2.9459109 24.400127
-0.14964201 2.918329 24.50758
-0.151262 2.890415 24.615004
-0.15489 2.796797 24.85544
-0.156689 2.768806 24.974682
-0.158553 2.701148 25.097525
-0.162247 2.643471 25.341749
-0.16393401 2.6131251 25.45286
-0.165894 2.543551 25.581266
-0.16697501 2.4803679 25.811647
-0.168952 2.4092109 25.943687
-0.17087799 2.378078 26.072472
-0.17508601 2.31633 26.353874
-0.176806 2.241255 26.46751
-0.179176 2.2103119 26.62603
0.79263902 1.750757 27.703333
-0.18333399 2.1444049 26.903053
0.59731603 2.6001589 25.522438
-0.185295 2.0677249 27.032167
-0.18734901 2.0333769 27.168531
-0.19172101 1.921186 27.457512
-0.193749 1.8852251 27.591692
-0.196041 1.849763 27.743801
-0.20110001 1.734779 28.077965
-0.20351399 1.69797 28.237871
-0.206135 1.661265 28.411718
-0.21097299 1.539946 28.729105
-0.21348201 1.5010951 28.894751
-0.215786 1.4612319 29.046354
-0.221167 1.3355761 29.398853
0.62764901 1.8760819 27.706167
-0.22379901 1.2946171 29.572214
-0.226733 1.20693 29.762794
-0.229068 1.117162 29.909166
-0.227092 1.0674109 29.76832
-0.22818001 0.97536302 29.832251
-0.234138 0.887905 30.223862
-0.57353401 2.9689541 24.028309
-0.23483901 0.509709 30.219667
-0.57854402 2.9474859 24.183401
-0.226587 0.36929801 29.639921
-0.39499199 1.156705 29.308655
-0.58725101 2.860523 24.455671
-0.224665 0.32352501 29.501867
-0.39770201 1.114012 29.435757
-0.59122699 2.8342581 24.578865
-0.22622301 0.27687401 29.599712
-0.40181801 1.072494 29.630762
-0.59351599 2.802531 24.650312
-0.40735301 0.93812901 29.88751
-0.60184503 2.710206 24.910149
-0.407671 0.89158499 29.898329
-0.60699302 2.685581 25.069027
-0.40579799 0.84338999 29.803108
-0.61116898 2.6577661 25.198023
-0.41150799 0.70630503 30.066799
-0.61963898 2.5612471 25.461327
-0.41575801 0.66110802 30.267204
-0.62407798 2.532697 25.598164
-0.418024 0.61457002 30.371565
-0.63079202 2.5094659 25.804699
-0.229884 -0.32882199 29.74704
-0.41803199 0.47200301 30.358238
-0.64187199 2.414288 26.147173
0.144967 3.056246 23.787336
-0.41806501 0.42454699 30.354328
-0.64696598 2.3851271 26.303793
0.14394601 3.056273 24.133482
-0.232427 -0.42634401 29.900543
-0.41789001 0.37710801 30.340343
-0.65251702 2.356518 26.474337
0.143125 2.966265 24.368538
-0.41670099 0.23510499 30.267912
-0.66380697 2.2559919 26.822256
0.142813 2.93677 24.456118
-0.404219 0.191888 29.659769
-0.669168 2.2251079 26.986691
0.14243101 2.869365 24.555506
-0.40104499 0.100674 29.496996
-0.67530102 2.152617 27.175789
0.14162999 2.8146541 24.792118
-0.402226 0.0078830002 29.541916
-0.68616003 2.0879519 27.508385
0.141203 2.787595 24.919346
-0.69269699 2.056886 27.708548
0.14079399 2.7187419 25.026297
-0.41563499 -0.14192601 30.171495
-0.69936001 1.981598 27.913166
0.139956 2.661629 25.27256
-0.414832 -0.235193 30.119686
-0.58967799 1.184461 30.031355
-0.71224898 1.915385 28.307243
0.139542 2.591042 25.379168
-0.41452399 -0.32887301 30.093533
-0.59587598 1.095351 30.259518
-0.71878898 1.83676 28.507488
0.139126 2.561204 25.500183
-0.41414401 -0.375292 30.068373
-0.72611701 1.803131 28.731333
0.13829701 2.5002451 25.740124
-0.41413 -0.468932 30.053814
-0.74194998 1.735432 29.214853
0.137703 2.432163 25.9081
-0.752473 1.65765 29.536421
0.137283 2.4005711 26.028938
-0.767169 1.6300009 29.985746
0.13631199 2.296952 26.299419
-0.77220798 1.4946361 30.137018
0.135877 2.264281 26.424088
-0.76808298 1.442979 30.008858
0.13539501 2.2322991 26.56468
-0.76747602 1.395342 29.988489
0.13438401 2.1247301 26.844477
-0.58062601 0.43306199 29.641733
-0.76600301 1.25307 29.938879
0.13393299 2.0904901 26.972927
-0.57791001 0.38694999 29.535793
-0.76891601 1.208618 30.026112
0.133412 2.0572791 27.125294
-0.57807499 0.34078601 29.537743
-0.77502501 1.166405 30.211191
0.13237201 1.9452651 27.410374
-0.78496897 1.030829 30.510223
0.131864 1.910105 27.55657
-0.78684402 0.98418599 30.565144
0.13134301 1.874697 27.70672
-0.78571802 0.93573701 30.528053
0.130227 1.758796 28.013016
-0.78438503 0.79182798 30.480247
0.12967899 1.722104 28.170963
-0.78410798 0.74405098 30.468836
0.129187 1.684044 28.308882
-0.78298199 0.69605201 30.431364
0.12815601 1.561623 28.580399
-0.78262901 0.55315 30.412405
0.127597 1.52289 28.740082
-0.78215599 0.50555199 30.394621
0.12700801 1.437977 28.889355
0.89783198 2.4486849 25.533463
-0.78195 0.410429 30.382776
0.125875 1.357617 29.210331
-0.780222 0.315617 30.322697
0.125269 1.3170691 29.38373
-0.77994603 0.26827601 30.310535
0.124614 1.229519 29.552378
-0.76229399 0.177441 29.764242
0.123323 1.1457469 29.922749
-0.75853598 0.085695997 29.641472
0.123508 1.049595 29.80094
-0.75434101 -0.0052240002 29.506388
0.123415 1.002907 29.795929
-0.76269197 -0.055163998 29.757551
0.122939 0.91110897 29.883677
-0.77606899 -0.15553901 30.157694
0.122272 0.81964302 30.05109
-0.77475399 -0.248919 30.109797
0.121571 0.77483499 30.251703
-0.77480602 -0.295928 30.106743
-0.77393699 -0.43618101 30.067123
-0.77320403 -0.48240599 30.039797
0.95266497 1.753401 27.69199
-0.772995 -0.52904201 30.028381
0.122544 0.39741299 29.647984
-0.77193099 -0.66842598 29.981678
0.122758 0.35144699 29.537947
-0.77132899 -0.71446103 29.957989
0.122604 0.30521801 29.551834
-0.77072698 -0.76042402 29.934227
-0.76946801 -0.89877099 29.880453
-0.769849 -0.94582498 29.88636
-0.768592 -0.99057001 29.842274
-0.76890701 -1.130567 29.835342
0.120573 -0.11755 29.911417
-0.76745301 -1.174651 29.78499
0.121005 -0.160542 29.728605
-0.767901 -1.221738 29.792456
0.120884 -0.298502 29.665615
-0.76657802 -1.358539 29.734547
0.120798 -0.34459299 29.654484
-0.766698 -1.405002 29.731743
0.120743 -0.43606099 29.607979
-0.226368 -4.3418279 28.449318
0.62274897 -3.651643 27.990685
-0.76604301 -1.496363 29.699945
0.120572 -0.527933 29.585213
-0.22777499 -4.4435968 28.509157
0.62229902 -3.7370291 27.963966
-0.76490599 -1.586362 29.651949
0.120468 -0.57402599 29.57972
0.62197202 -3.778636 27.943586
-0.76469898 -1.632009 29.638815
0.120333 -0.66589803 29.558483
0.62168002 -3.865129 27.924351
-0.76516002 -1.72531 29.640209
0.120215 -0.75671601 29.517017
0.62096697 -3.9474139 27.879194
-0.76244903 -1.8111989 29.543674
0.120098 -0.84801197 29.489218
0.62070298 -4.0339808 27.861406
-0.76251602 -1.903314 29.532545
0.119993 -0.89390999 29.483221
0.62086898 -4.0806851 27.874146
-0.76368898 -1.952003 29.560764
0.119936 -0.98321301 29.421074
0.62120199 -4.1742458 27.899389
-0.76327699 -2.042721 29.533295
0.119812 -1.074121 29.394567
0.62035501 -4.2542291 27.841448
-0.76229501 -2.132026 29.489574
0.119694 -1.1200531 29.392212
-0.228595 -5.0127959 28.357016
0.62046301 -4.3003888 27.849871
-0.76176 -2.1763561 29.465639
0.119575 -1.209749 29.349344
0.61966097 -4.3809199 27.797516
-0.58118999 -3.0462461 29.147161
-0.761217 -2.2662539 29.433496
0.119432 -1.300616 29.328123
0.61950999 -4.4685512 27.786249
-0.76036698 -2.3553369 29.393078
0.119419 -1.344354 29.291475
0.61918199 -4.5095072 27.76478
-0.58071297 -3.1792159 29.100779
-0.75989801 -2.399549 29.370794
0.119156 -1.480698 29.266911
0.61855698 -4.6360979 27.721609
-0.75897503 -2.533509 29.319424
0.119049 -1.526158 29.259924
0.61956 -4.6935029 27.790363
-0.759296 -2.5799251 29.320736
0.119024 -1.5697989 29.226929
-0.75909001 -2.624706 29.306067
0.118815 -1.704378 29.183359
-0.40397999 -4.8604898 28.563019
-0.75862902 -2.759567 29.267572
0.11869 -1.750128 29.182005
-0.57965201 -3.5774989 28.969898
-0.75862098 -2.804857 29.258589
0.118652 -1.7937191 29.15266
-0.758219 -2.8487959 29.237614
0.118368 -1.929646 29.131973
-0.75696701 -2.9803779 29.174255
0.454285 -4.060318 28.063387
0.118374 -1.971828 29.088409
-0.757487 -3.0273609 29.180809
0.45417801 -4.104476 28.05831
0.11833 -2.015238 29.060726
-0.57906902 -3.8419249 28.883568
-0.75754601 -3.0727129 29.173391
0.45386499 -4.144731 28.029486
0.118043 -2.150646 29.039
-0.75616503 -3.2031181 29.105057
0.45349699 -4.2754869 28.003752
0.117909 -2.196382 29.038933
-0.75543302 -3.245342 29.073565
0.453132 -4.314508 27.968765
0.1178 -2.284584 29.002703
-0.40410799 -5.426075 28.382824
-0.75603598 -3.337817 29.073803
0.452838 -4.4002628 27.943911
0.117672 -2.3716941 28.958279
-0.75556201 -3.425765 29.040091
0.45248401 -4.4854488 27.916859
0.117608 -2.415154 28.935966
-0.75496298 -3.468215 29.012238
0.45227301 -4.5272908 27.899296
0.117447 -2.504446 28.914986
-0.57823199 -4.3251462 28.728823
-0.75464398 -3.5567889 28.984035
0.45190901 -4.6113129 27.865915
0.117287 -2.592051 28.879843
-0.40537 -5.7400289 28.334505
-0.57827199 -4.4135461 28.705923
-0.75483 -3.647058 28.969454
0.117137 -2.6806569 28.854336
-0.404403 -5.8165669 28.260342
-0.75437999 -3.7348289 28.936745
0.116989 -2.7266159 28.857401
-0.75463903 -3.780607 28.934155
0.116841 -2.8133819 28.817606
-0.75317597 -3.863373 28.869438
0.116704 -2.901201 28.787443
-0.57811201 -4.7209678 28.615683
-0.753519 -3.9542661 28.859787
0.11664 -2.9440539 28.764336
-0.75318402 -3.997231 28.839066
0.116424 -3.074785 28.714441
-0.57750201 -4.892406 28.543547
-0.75312698 -4.1305838 28.806093
0.116346 -3.117907 28.695044
-0.57779402 -4.938108 28.541075
-0.75305599 -4.1746368 28.793001
-0.75278801 -4.2177062 28.773922
0.115941 -3.2954509 28.658403
-0.75246799 -4.3493481 28.732037
0.115896 -3.3370571 28.628759
-0.57742399 -5.1540041 28.462847
-0.75193399 -4.3909249 28.704807
0.115839 -3.379113 28.603018
-0.57722801 -5.196116 28.442305
-0.75193 -4.4350958 28.693287
0.115562 -3.5110321 28.568966
-0.57725102 -5.3270559 28.403776
0.115457 -3.5548229 28.556831
0.11534 -3.5991499 28.548588
-0.75114101 -4.6518521 28.61297
0.115121 -3.728061 28.495708
0.115009 -3.7719841 28.485216
-0.75055599 -4.8248749 28.549095
0.114878 -3.8167789 28.480589
-0.75075102 -4.8698311 28.542799
0.114631 -3.9463301 28.434626
0.114586 -3.9870231 28.404037
0.114371 -4.0761752 28.392019
0.114314 -4.1555028 28.320541
0.114182 -4.2000661 28.315308
0.113938 -4.2902808 28.310505
0.113767 -4.3746519 28.271938
-0.75410801 -5.4595852 28.481741
0.113529 -4.464447 28.264606
-0.74955201 -5.519083 28.322262
0.113457 -4.505815 28.241156
0.111631 -4.6757202 28.680283
2.356142 -2.5405259 6.2502198
2.2443941 -2.2069621 6.2297068
2.273629 -2.353318 6.2763362
2.2489331 -2.3662741 6.1774979
2.23651 -2.3956971 6.1171331
0.38615999 -3.5563581 8.0006819
0.383654 -3.5244639 7.8778148
2.2618539 -2.527693 6.1516471
1.695863 -3.1861689 6.662714
0.97751898 -3.394207 7.509841
0.96642703 -3.3494101 7.3961878
2.2611411 -2.5739031 6.1265802
1.703019 -3.256613 6.6683741
2.2414711 -2.5904629 6.04286
2.202503 -2.238956 6.3057971
1.699541 -3.298851 6.6239491
0.912705 -3.1612849 6.831018
0.901079 -3.111059 6.7132831
0.89597303 -3.0947089 6.6587248
1.7040991 -3.372797 6.6105571
0.88265598 -3.0553589 6.5146198
0.97221899 -3.5469179 8.0251799
0.875561 -3.027807 6.4411321
0.96878701 -3.5413921 7.9833088
0.86955202 -3.005821 6.378202
0.966034 -3.5393291 7.948595
2.360425 -2.8835499 6.3535442
1.177161 -3.1193171 6.7318478
0.85226202 -2.942745 6.1968341
1.164533 -3.0822649 6.6391091
0.84860802 -2.9326971 6.1568122
1.1564111 -3.072222 6.5723391
0.013218 -3.6032901 8.030714
2.509762 -3.3922689 6.3754611
2.2387519 -2.734103 5.9584699
2.1094911 -3.577322 6.3854742
2.051028 -3.270407 6.6279368
0.90035701 -3.2825561 7.2154508
0.01357 -3.6188791 8.0002108
0.89016002 -3.238353 7.1035938
0.017442999 -3.5500391 7.835465
0.64083999 -3.654171 7.7238412
0.88281298 -3.220403 7.0161581
0.020273 -3.5136919 7.7056398
1.623596 -3.1798251 6.6523418
2.111197 -3.6304431 6.360353
2.054029 -3.327971 6.610539
1.208603 -3.322552 7.345912
0.63092899 -3.5833271 7.5350351
0.86631799 -3.151475 6.8338299
0.027456 -3.3850889 7.4005451
1.200129 -3.313175 7.2724061
0.62594301 -3.5590191 7.4345431
0.86540598 -3.1678369 6.8137369
0.029851999 -3.3559239 7.289331
1.1885639 -3.280261 7.182025
0.620794 -3.520823 7.3370118
0.85216898 -3.1049089 6.6710501
0.031486999 -3.331718 7.2161441
2.255213 -2.571543 6.3633919
1.620977 -3.2240601 6.6117849
2.110076 -3.676945 6.3250742
1.173121 -3.243165 7.0578709
0.835513 -3.0326059 6.4880471
0.036655001 -3.242367 6.9940891
1.16129 -3.2193911 6.9603019
0.82902098 -3.0164101 6.410583
0.036322001 -3.269567 6.9930768
0.82238799 -2.988992 6.3369431
0.039239999 -3.2169631 6.869204
2.506367 -3.532712 6.2757812
1.621848 -3.2776151 6.5880489
1.127332 -3.119179 6.696269
0.044991001 -3.112515 6.625524
1.1169471 -3.099251 6.6099329
0.046383001 -3.1013529 6.5563869
2.5090621 -3.5859859 6.252502
1.624812 -3.3369429 6.574091
0.88881302 -3.4416139 7.6589532
0.87916797 -3.3972709 7.5449629
2.5151989 -3.645545 6.2383051
2.210429 -2.644778 6.1507001
2.1159329 -3.670198 6.7182088
0.60195303 -3.5717399 8.0950623
0.27409801 -3.317426 7.3445301
0.59767199 -3.5398431 8.001482
0.273339 -3.284976 7.2554278
0.59278601 -3.5013061 7.8955612
0.27236801 -3.2391951 7.1416779
1.1891021 -3.4012721 7.5826082
0.58637297 -3.4505811 7.706934
0.30183899 -2.8709841 5.7583332
0.27257299 -3.182626 6.95541
1.1835721 -3.390918 7.5342808
0.301478 -2.8676751 5.7324128
0.27225301 -3.1762869 6.9179978
1.1695729 -3.34641 7.4208331
0.301532 -2.8794351 5.7324119
0.271743 -3.158479 6.8594818
2.2121029 -2.749176 6.0985789
2.114289 -3.776006 6.6351299
1.998956 -3.2456591 6.7303438
1.147959 -3.293473 7.237783
0.301478 -2.9067409 5.718461
0.30142099 -2.9144299 5.7114992
0.30150199 -2.9272211 5.7131181
1.984807 -3.266238 6.6470652
0.30166799 -2.9627039 5.712636
0.30161101 -2.9703701 5.7055941
0.301559 -2.9878671 5.6948562
2.2263401 -2.6551659 6.474854
1.556766 -3.1905551 6.6561451
1.985083 -3.318125 6.619534
0.30163699 -3.0104239 5.6926279
-0.093212999 -3.619374 8.0603352
1.18935 -3.551542 8.0327396
0.30158001 -3.0180449 5.6855178
0.30160999 -3.038635 5.6797299
2.2047181 -2.6698201 6.379426
2.438699 -2.241662 6.2030768
1.563908 -3.2629981 6.665215
1.99716 -3.396666 6.63692
0.78528702 -3.1918161 6.9597769
0.30130401 -3.0464001 5.6535401
-0.074630998 -3.4252031 7.5328751
0.77806503 -3.1674719 6.8619838
0.301799 -3.084996 5.6764359
-0.071129002 -3.3994839 7.4267411
0.77072299 -3.131124 6.7682891
0.301523 -3.0840449 5.6556821
-0.066858999 -3.3515871 7.3073602
1.561425 -3.3071101 6.6240649
0.75677401 -3.062283 6.5900822
-0.060265999 -3.2817211 7.1203842
1.307601 -3.1370151 6.6509862
0.74941099 -3.035152 6.4913039
-0.056961 -3.2567821 7.0203862
1.305842 -3.1415119 6.6349521
0.51460999 -3.287039 7.1885209
-0.054368999 -3.230864 6.9457951
1.56591 -3.3718629 6.6182842
0.50587201 -3.212755 6.9677172
0.063763 -3.125365 5.6344862
-0.051635001 -3.2230279 6.854537
-0.04648 -3.1602671 6.713429
-0.043212 -3.123786 6.6217151
2.235703 -2.869241 6.4073739
0.174546 -3.616159 8.1909618
0.81193 -3.5635321 7.9912
-0.037976999 -3.0782371 6.4664559
0.70631999 -2.8484001 5.9262938
0.79939699 -3.4909539 7.8198771
-0.035110001 -3.0466189 6.3856692
1.187616 -2.843565 5.871593
0.70132601 -2.824172 5.8620391
0.79170102 -3.4507971 7.7126379
-0.031837001 -3.0089481 6.2945042
1.1760319 -2.8312399 5.7873392
0.77601701 -3.3792851 7.4890432
-0.027876999 -2.9793179 6.173532
1.171977 -2.826273 5.7581768
0.76792097 -3.3351941 7.377007
-0.024939001 -2.9456699 6.091486
1.172811 -2.8380091 5.758204
0.76143903 -3.3019099 7.2863178
-0.022877 -2.9245341 6.032196
2.45749 -2.5137041 6.143568
1.492264 -3.1956639 6.6913028
1.1750309 -2.872395 5.7563958
0.75180697 -3.268966 7.1435461
-0.017426001 -2.8710711 5.8738809
0.94140702 -2.8206961 5.8577361
1.167526 -2.855211 5.706768
0.743716 -3.2235 7.0321221
-0.01435 -2.834367 5.7888751
1.166038 -2.867697 5.6878562
0.737077 -3.198822 6.934474
-0.014266 -2.8501239 5.7750869
2.3421071 -3.421042 6.2486482
1.4971319 -3.2623191 6.6901889
1.1677051 -2.8910699 5.6876879
-0.014054 -2.8636949 5.7578349
-0.011718 -2.837249 5.6922002
1.171075 -2.9293621 5.692317
-0.012107 -2.859756 5.690486
2.3435731 -3.4719429 6.2230511
1.495716 -3.3096371 6.6540928
1.181077 -2.9824719 5.741056
1.2600189 -3.133209 6.6394048
-0.012232 -2.878087 5.681839
1.1772881 -2.9867229 5.7082791
1.255824 -3.1391881 6.60218
-0.012824 -2.903681 5.6851168
1.178696 -3.0005679 5.7113562
1.243657 -3.10677 6.5204811
0.69194198 -2.979795 6.2947078
-0.012244 -2.9031091 5.6644258
2.345577 -3.5237341 6.1986361
2.369206 -2.3191409 6.1565361
1.498069 -3.368499 6.6381612
1.17835 -3.0169201 5.6988649
0.71420401 -3.4110889 7.5851789
-0.012572 -2.924463 5.6607718
1.1777231 -3.032315 5.6846018
-0.012827 -2.9449191 5.6552901
1.177981 -3.0420151 5.6808381
0.67127401 -2.8769059 6.0023351
-0.012653 -2.9504099 5.6448541
2.3475821 -3.5753839 6.1737771
2.364928 -2.3606081 6.1226001
1.178785 -3.062458 5.6749368
0.66142499 -2.822767 5.86553
-0.013251 -2.975935 5.6478338
0.69640899 -3.0598371 5.6548061
0.65641201 -2.8038459 5.7912989
-0.013168 -2.9911439 5.633657
-0.013264 -3.000767 5.629971
2.3512061 -3.630131 6.153254
2.3748591 -2.4212749 6.1298432
0.429113 -2.89166 6.0779362
0.425881 -3.3990109 7.4623108
0.66299301 -3.1344769 6.7603369
-0.013819 -3.0339849 5.6255531
0.42712799 -2.8703859 6.0187888
0.422916 -3.3577819 7.3552251
0.65669501 -3.094816 6.6614718
-0.013983 -3.0446689 5.6234851
0.42262101 -2.8094101 5.890214
0.42005599 -3.318079 7.2518291
-0.013877 -3.0510941 5.6146321
2.4487441 -2.7806771 5.9764848
0.97762197 -3.213218 7.0081649
0.41762301 -2.7587321 5.739655
0.41487601 -3.2589331 7.059092
0.63624698 -2.9714651 6.337534
-0.014229 -3.081111 5.604857
0.41961199 -2.7994399 5.7900419
0.410685 -3.1937649 6.9102669
0.635625 -2.9763579 6.3234191
-0.013919 -3.0842581 5.5909052
0.41806999 -2.7842169 5.7434392
0.41234401 -3.2353899 6.962779
0.632994 -2.964895 6.2795448
-0.014423 -3.100311 5.5971522
0.417487 -2.802474 5.714376
0.62345803 -2.9162941 6.1237478
0.41745901 -2.811173 5.7092862
0.92327899 -3.0231929 6.4773259
1.122279 -2.891171 5.9851828
0.41761899 -2.822911 5.7093482
2.2733941 -3.4460001 6.239502
0.909859 -2.987097 6.340415
0.60442102 -2.805939 5.8190851
0.901519 -2.9555981 6.2599959
0.896828 -2.951715 6.2074699
0.88362998 -2.9047849 6.0785508
0.87394202 -2.865485 5.986424
0.86905998 -2.8594379 5.9326291
2.303134 -2.556787 5.8050671
2.1901679 -3.1541481 6.3538032
1.775687 -3.1889191 6.709794
2.1925471 -3.207665 6.3337259
1.780146 -3.2517791 6.7016649
2.201 -3.273104 6.3330598
2.5382431 -3.057255 6.3982639
1.780373 -3.3040531 6.67418
2.2008481 -3.321521 6.3037181
2.5268519 -3.0883729 6.3389978
1.784803 -3.37725 6.6589441
2.20067 -3.3794129 6.2679701
2.536736 -3.1628289 6.3335938
2.1176541 -3.091331 6.3737841
2.533036 -3.2054501 6.2952299
2.208457 -3.4918251 6.233191
2.1238611 -3.1525781 6.367744
2.541167 -3.267288 6.2893758
2.1246879 -3.2032139 6.3426828
2.5421989 -3.3173461 6.2633352
2.127959 -3.25862 6.3255472
2.551511 -3.3812971 6.2596269
2.552541 -3.4311669 6.2326512
2.5529799 -3.479816 6.2036562
2.5581491 -3.536593 6.1870708
2.562701 -3.6018391 6.1619911
2.8832681 11.506759 8.0136852
2.8651741 11.366517 8.0446405
2.86341 11.29599 8.1253176
2.006861 11.677713 7.9904528
1.982058 11.483578 7.9324379
1.9738719 11.419625 7.9131322
1.99568 11.544536 8.0286245
1.980616 11.412209 8.0128775
0.48991001 10.561341 7.6521869
1.977556 11.380544 8.0163298
0.489663 10.539926 7.6610661
1.977855 11.357202 8.0521622
0.490136 10.532079 7.7051201
2.7023039 10.293866 8.0305014
1.979681 11.343466 8.0950232
0.49077401 10.530555 7.754086
1.983286 11.353305 8.1288013
0.490962 10.524942 7.7749572
1.981532 11.316855 8.1551085
0.03118 10.776962 7.707788
0.49200201 10.537269 7.8349051
1.9828449 11.299549 8.1955528
0.036099002 10.468854 7.5296941
-0.048411001 11.019461 7.5380292
0.49403599 10.585852 7.9231548
0.036582999 10.429962 7.525321
-0.050769001 11.106086 7.6236629
0.49553299 10.627363 7.9808888
0.036095001 10.436995 7.579762
-0.050726 11.082398 7.6574459
0.49552399 10.600973 8.011941
0.035432 10.453492 7.641593
-0.050693002 11.058731 7.6912031
0.49733901 10.64069 8.0947876
0.035330001 10.437715 7.679369
-0.053025 11.132436 7.7946029
0.49693599 10.599825 8.1147184
0.035259999 10.430633 7.6988778
-0.053010002 11.1204 7.8115692
0.49699199 10.588851 8.1320906
0.033934001 10.484607 7.7901959
-0.052978002 11.096245 7.8454409
0.49496201 10.490203 8.1057119
0.032340001 10.553817 7.894094
0.49412099 10.433809 8.1125307
0.49351999 10.399465 8.1108456
0.031516001 10.555195 7.9975591
-0.045751002 10.733076 7.733077
0.49434799 10.389592 8.1808834
1.881057 10.460093 7.9967051
0.031803999 10.527103 8.001277
-0.045736998 10.721137 7.749413
0.49282899 10.322709 8.1524563
1.882351 10.455507 8.0187759
0.032671001 10.466018 7.97896
-0.045722999 10.709173 7.7657309
1.879829 10.402623 8.0540113
0.032742001 10.427277 8.0253592
-0.041639999 10.509723 7.6922932
0.496461 10.398455 8.3194733
1.874199 10.356125 8.0425425
0.031401999 10.491514 8.1022816
0.498611 10.461037 8.3977947
1.871901 10.32978 8.0471058
0.032212999 10.433697 8.0820236
0.498227 10.434213 8.4022017
2.592617 10.356077 8.0385284
1.8727109 10.296883 8.0978813
1.354627 10.66568 8.0463457
0.032999001 10.354027 8.0955973
0.49900699 10.421079 8.4715462
1.880414 10.330495 8.151123
1.343515 10.552408 7.9845252
0.029259 10.552881 8.2824974
0.503254 10.556349 8.6123095
1.8873481 10.359358 8.2007246
1.340399 10.511743 7.9785848
0.032742999 10.344508 8.1396646
0.50330597 10.544554 8.6296568
2.577116 10.226168 8.0626383
1.885592 10.310404 8.2390461
1.820091 10.64955 7.9832768
1.3374881 10.447899 8.0055542
0.033112999 10.288024 8.1715088
-0.040865999 10.364305 7.8316178
0.50382298 10.521042 8.6919346
1.892012 10.335859 8.2863464
1.830621 10.704865 8.0515289
0.88185501 10.471787 8.1564779
1.336629 10.427697 8.0152874
0.033481002 10.255323 8.1706238
-0.045635 10.543372 7.9956932
0.504879 10.544061 8.7391319
1.885097 10.281844 8.267848
1.816202 10.599701 7.9962778
1.336814 10.416873 8.0323811
0.033766001 10.227275 8.1734753
0.50611103 10.573027 8.7916307
2.5983939 10.25476 8.215065
1.80475 10.488831 7.9872222
0.88416898 10.455269 8.2476263
1.33251 10.340478 8.0487566
-0.045343 10.484262 8.0522537
0.50981599 10.658959 8.949749
1.801826 10.457719 7.9885092
0.878622 10.358714 8.1956291
1.329391 10.300027 8.0420828
-0.044739 10.448271 8.0496225
1.800879 10.426633 8.0153465
0.87576997 10.289884 8.1917143
1.327161 10.254839 8.0570927
-0.044234 10.404456 8.0664082
1.798699 10.387824 8.0359564
0.87548 10.259903 8.2191734
1.336394 10.311969 8.1547098
-0.043779001 10.362324 8.0842924
0.50693202 10.488758 8.9420528
-0.205577 11.120767 7.4425769
1.793817 10.344319 8.0270576
0.87487102 10.237946 8.2271481
1.33762 10.310187 8.1791821
-0.04369 10.346714 8.0975399
0.50637001 10.455433 8.9407969
-0.20556 11.109286 7.459518
1.791646 10.305401 8.0472898
0.87520701 10.216975 8.2620182
1.336431 10.273951 8.2016296
-0.042870998 10.290416 8.1038141
0.507837 10.476932 9.0163498
-0.20551801 11.086119 7.4932971
1.789708 10.268128 8.0686512
2.2499411 11.582787 8.029192
0.87049001 10.120844 8.2342052
1.3361011 10.245491 8.2303114
-0.041627999 10.217226 8.0959978
1.80099 10.313984 8.1572733
0.86938399 10.078408 8.2507582
1.336998 10.227564 8.2677393
1.801733 10.305993 8.1767101
0.870318 10.079405 8.2776413
1.800038 10.269928 8.1992302
2.2254679 10.69019 8.0395536
0.87568402 10.13303 8.3753786
-0.045246001 10.29778 8.2916861
1.8010449 10.250553 8.2354279
0.87519401 10.099382 8.3996124
1.801053 10.237818 8.251009
0.873658 10.063627 8.3954754
0.87348199 10.02146 8.4385967
0.87420899 10.018978 8.4629679
0.80287302 10.621454 7.9300308
1.755146 10.737933 8.0677767
0.80943501 10.723036 8.0341396
2.469491 10.380534 7.9750171
1.733308 10.553254 8.0016489
0.80156398 10.548549 7.9760628
1.727965 10.504948 7.9894962
0.80193901 10.54252 7.9970312
1.726346 10.481676 7.9968719
0.79994798 10.495595 7.985918
2.4517641 10.224693 8.0036383
2.4820659 11.377233 8.0097151
1.722663 10.419522 8.0248089
0.79908001 10.442728 8.0212746
1.721974 10.40246 8.0369368
0.79963601 10.439716 8.0446129
1.718725 10.368325 8.0353785
0.79800802 10.399178 8.0380507
2.479284 11.300569 8.0857468
1.71178 10.284516 8.045104
0.79468 10.30416 8.0389814
1.20708 10.787512 8.0988026
-0.11857 10.306499 8.0226536
1.710392 10.262823 8.0532293
0.79505402 10.297954 8.0596619
1.20544 10.757615 8.1018343
-0.117995 10.27699 8.0245028
1.719965 10.300885 8.1358356
0.796538 10.297696 8.1110611
1.191361 10.584268 8.0196362
-0.118532 10.269129 8.0695162
2.482862 11.255094 8.1846037
1.723707 10.300271 8.1872969
0.799649 10.325163 8.1853714
1.186129 10.50443 8.0088711
-0.122885 10.375785 8.20821
1.725578 10.299879 8.2130547
0.79911202 10.30325 8.19345
1.184338 10.473212 8.0100899
-0.120511 10.291973 8.1656752
1.722345 10.252925 8.2265434
0.79850203 10.266996 8.2157793
1.184217 10.446742 8.0406332
-0.120124 10.255797 8.1879654
1.721895 10.224412 8.2551374
0.80133897 10.289187 8.2865667
0.73453099 10.779603 8.1019812
1.1849869 10.429681 8.0785742
-0.120519 10.242781 8.2293119
0.72649598 10.593199 8.0099726
1.180963 10.36248 8.0766201
0.72476602 10.546096 7.9991221
1.1793211 10.332875 8.0786562
0.72383797 10.502457 8.0164061
1.1784379 10.298563 8.1025286
0.72268099 10.453976 8.0297394
1.1844701 10.335324 8.1840115
0.72292799 10.446278 8.0493412
1.184629 10.324222 8.2009754
0.72104901 10.383822 8.0512505
1.183444 10.286504 8.2222214
0.71933699 10.324451 8.0552902
1.182569 10.251702 8.2457952
2.173943 11.343009 8.4564066
0.84988302 10.923389 9.1844139
0.71871299 10.299533 8.0609741
1.183628 10.249715 8.2702637
2.043622 11.293881 7.9559851
0.721834 10.322552 8.1568432
2.0402279 10.543152 7.9443011
2.0500679 11.320155 8.0010376
0.72310799 10.334768 8.1926823
2.039959 10.529315 7.9591169
2.0514209 11.315815 8.024106
0.72280002 10.315911 8.2033329
2.033282 10.454885 7.9776349
2.051739 11.280004 8.0769119
0.72180402 10.257622 8.2337313
2.0310521 10.430128 7.983707
2.052557 11.272313 8.0976219
0.72236598 10.255687 8.258214
2.029103 10.406928 7.9909501
2.050961 11.250218 8.1077518
0.72316402 10.258317 8.2865334
2.0280211 10.363498 8.0333481
2.049401 11.202869 8.1519794
2.0171151 10.290869 8.0007343
2.0537021 11.215684 8.1880102
2.0182431 10.284673 8.0213404
2.0320041 11.074494 8.1089087
2.0210769 10.262647 8.0806084
2.03284 10.314592 8.1487923
2.0320261 10.284659 8.1762953
2.0298021 10.247146 8.1974306
2.0351269 10.263434 8.2370176
1.984412 10.681053 8.0445356
2.0421491 10.275821 8.2998552
1.9798861 10.629414 8.0563078
1.961409 10.496697 8.0044613
1.955541 10.437525 8.0093622
1.95689 10.43293 8.0313616
1.499283 10.614909 7.9418449
1.951546 10.377033 8.0384159
1.519238 10.749437 8.0967627
1.9507689 10.347393 8.0661707
1.498731 10.573179 7.9865031
1.495593 10.523355 7.9990768
1.491676 10.467153 8.0064507
1.49129 10.451654 8.0198984
1.4899451 10.40337 8.0587749
1.487783 10.37379 8.0609446
1.4834501 10.327122 8.0493803
1.481143 10.295327 8.1014967
1.485294 10.315305 8.1434183
1.490429 10.342902 8.1916933
2.8818109 10.734025 8.030818
1.486544 10.273932 8.2134819
1.487543 10.268927 8.2354021
1.485981 10.243915 8.2408638
2.8476329 10.332344 8.2586575
-0.140773 9.534008 23.141096
-0.140183 9.481039 23.112671
-0.139622 9.4289112 23.085999
-0.138724 9.2939386 23.059395
-0.138078 9.2400007 23.026728
-0.137573 9.1897602 23.003286
-0.136536 9.0521975 22.965988
-0.136116 9.0043936 22.947781
-0.135584 8.9538717 22.921984
-0.134633 8.8193874 22.888973
-0.13404401 8.7678289 22.859039
-0.13379601 8.6881313 22.862722
-0.13264699 8.5862989 22.804068
-0.132285 8.5405989 22.788708
-0.290454 9.4064732 23.247074
-0.13181099 8.4559641 22.776529
-0.28981999 9.3207626 23.241747
-0.13074601 8.3570471 22.722567
-0.28805199 9.2145462 23.181997
-0.128543 8.2328854 22.594477
-0.28729901 9.1271248 23.170376
-0.129117 8.2093544 22.640835
-0.28671801 9.079648 23.154179
-0.12904701 8.134119 22.652119
-0.28531501 8.9807091 23.11027
-0.128462 8.0478888 22.630899
-0.28424001 8.8882694 23.082794
-0.127959 7.9998102 22.605028
-0.28293499 8.8287182 23.032362
-0.127124 7.907743 22.564384
-0.282056 8.7396364 23.011875
-0.126682 7.8252759 22.55183
-0.28074101 8.643857 22.972202
-0.12589499 7.7713952 22.506506
-0.28080499 8.6079912 22.985176
-0.116565 7.4608998 21.905394
-0.278954 8.4667768 22.929478
-0.116146 7.4163318 21.884136
-0.27849501 8.4223347 22.917656
-0.115784 7.3730631 21.866604
-0.278519 8.3858929 22.928394
-0.115121 7.2531571 21.843994
-0.27702901 8.2515593 22.888393
-0.114702 7.20894 21.822329
-0.27656999 8.2073746 22.876165
-0.11417 7.162437 21.792938
-0.27526501 8.1496601 22.824123
-0.113423 7.0415659 21.763462
-0.27309099 8.0055809 22.750584
-0.113118 7.0000539 21.749041
-0.27331799 7.9726062 22.770136
-0.112643 6.9551382 21.723053
-0.27273899 7.9269438 22.751699
-0.112011 6.8373508 21.700121
-0.27112901 7.7927961 22.703421
-0.111564 6.7933068 21.675728
-0.27071199 7.7499118 22.692242
-0.111316 6.753293 21.664682
-0.27005199 7.7033768 22.669573
-0.110515 6.6328902 21.629145
-0.26848501 7.570889 22.621929
-0.59686798 9.787859 23.390186
-0.110468 6.5969348 21.631266
-0.26423201 7.470809 22.429296
-0.59571201 9.7371683 23.369715
-0.111257 6.5423598 21.696861
-0.25455901 7.2556262 21.989794
-0.59432799 9.6470346 23.356272
-0.113678 6.5176969 21.870222
-0.25453001 7.184598 22.003679
-0.59144098 9.5395737 23.297915
-0.114461 6.4969501 21.928022
-0.25318199 7.1295972 21.947489
-0.115568 6.4469018 22.014614
-0.25259599 7.0510292 21.936062
-0.117795 6.4163628 22.174494
-0.25111201 6.9594092 21.880373
-0.118791 6.3630481 22.253218
-0.25044599 6.8801122 21.864515
-0.119835 6.3457952 22.328312
-0.25014901 6.840868 21.857462
-0.121868 6.3096108 22.474627
-0.248787 6.7517929 21.80669
-0.123011 6.2573929 22.562817
-0.24832401 6.6758022 21.799698
-0.124259 6.2426291 22.651432
-0.247987 6.636241 21.790359
-0.24654099 6.5122638 21.74264
-0.2458 6.4674931 21.713764
-0.24570601 6.4314532 21.715609
-0.246894 6.342886 21.79208
-0.247977 6.3220539 21.849651
-0.392685 7.4878259 21.943995
-0.24974801 6.3099618 21.94002
-0.392279 7.4480791 21.938011
-0.25231999 6.237464 22.081707
-0.390246 7.31991 21.890993
-0.25352699 6.2173319 22.145016
-0.389893 7.2809539 21.88662
-0.25513899 6.2021041 22.227652
-0.38891199 7.2348738 21.859278
-0.258286 6.1343498 22.396168
-0.38734999 7.1129951 21.828257
-0.25994101 6.118762 22.480728
-0.38694501 7.0736728 21.821608
-0.26159799 6.0670981 22.572285
-0.38589501 6.9927168 21.800398
-0.26454899 6.0300441 22.723919
-0.38414201 6.9040618 21.752117
-0.26637 6.0152721 22.816229
-0.38384199 6.8661351 21.748932
-0.26791 5.9605498 22.901772
-0.382792 6.7857389 21.726971
-0.27106899 5.9237552 23.063047
-0.38093501 6.6967459 21.67404
-0.272816 5.8701448 23.158131
-0.38040999 6.622364 21.670687
-0.27435699 5.850553 23.236788
-0.38042599 6.5880008 21.678551
-0.27553001 5.7893372 23.302559
-0.38381401 6.5539408 21.817276
-0.26898399 5.6430268 22.999802
-0.385809 6.5050201 21.905874
-0.269021 5.6066799 23.006098
-0.38782001 6.4905572 21.986773
-0.26775301 5.5194921 22.954132
-0.39142299 6.4566951 22.133162
-0.52518898 7.0280032 21.895426
-0.26795799 5.4485712 22.974039
-0.39315999 6.4036322 22.211948
-0.52471399 6.9543471 21.898945
-0.26925901 5.42559 23.040565
-0.39475399 6.383985 22.27739
-0.52323699 6.9064021 21.863295
-0.26921901 5.3150229 23.052328
-0.39861399 6.3151369 22.440754
-0.52154398 6.7875118 21.838173
-0.26877001 5.2736182 23.034636
-0.40063 6.2988238 22.521624
-0.520518 6.7438841 21.815601
-0.26823899 5.231452 23.012953
-0.40269899 6.282774 22.604431
-0.51968497 6.7020202 21.798706
-0.26763099 5.1154442 22.996367
-0.407565 6.2206988 22.804399
-0.51805699 6.584425 21.774412
-0.26722199 5.074728 22.980272
-0.409794 6.2052131 22.893017
-0.516967 6.540607 21.749525
-0.26738399 5.0396562 22.991543
-0.41207701 6.1899509 22.98358
-0.51594102 6.4974279 21.726479
-0.265881 4.915493 22.930836
-0.41626701 6.118516 23.158205
-0.514314 6.3805981 21.701099
-0.26449299 4.8657951 22.867306
-0.417869 6.096148 23.223513
-0.51554298 6.356307 21.745186
-0.26400301 4.824738 22.846851
-0.41983899 6.0768929 23.302404
-0.51773798 6.3398218 21.818167
-0.26421401 4.7176142 22.867508
-0.41283399 5.9041781 23.062496
-0.52204198 6.270781 21.969511
-0.26352 4.6748762 22.836962
-0.40954399 5.8387418 22.946623
-0.52436799 6.2545762 22.046328
-0.26294801 4.633348 22.812231
-0.40878001 5.7956152 22.924028
-0.52669501 6.2381439 22.123144
-0.407453 5.6751351 22.89275
-0.53152102 6.1707311 22.289736
-0.40921599 5.6536322 22.963415
-0.533786 6.1529899 22.364597
-0.410339 5.5901518 23.01689
-0.53589898 6.0984101 22.442617
-0.409655 5.5113692 23.001913
-0.540627 6.0630751 22.598085
-0.40899599 5.4694548 22.982607
-0.54347497 6.048707 22.690359
-0.40875301 5.3946218 22.98476
-0.54591602 5.9950309 22.77787
-0.115467 3.458894 22.210258
-0.40727901 5.3099308 22.939787
-0.551036 5.9604049 22.944929
-0.116478 3.397397 22.279243
-0.40687799 5.234087 22.935551
-0.55328703 5.9040871 23.026436
-0.118049 3.3759689 22.385067
-0.40685201 5.197473 22.93923
-0.55594599 5.886734 23.11285
-0.121019 3.330605 22.584776
-0.406064 5.1186252 22.918995
-0.56075001 5.8475871 23.270121
-0.122647 3.2726951 22.695082
-0.40540099 5.0410242 22.904325
-0.56339198 5.79246 23.363071
-0.123756 3.2458839 22.769056
-0.40448001 4.9978189 22.874369
-0.56579697 5.7721691 23.441662
-0.12687699 3.1625659 22.978849
-0.403687 4.8832889 22.858543
-0.552118 5.5675879 23.047537
-0.128251 3.1369741 23.070578
-0.40302899 4.8422909 22.838106
-0.54851502 5.5066962 22.944471
-0.12994701 3.1136329 23.184132
-0.40210801 4.7994838 22.807777
-0.54865903 5.4713192 22.954445
-0.40099999 4.6833568 22.779169
-0.546538 5.348392 22.90781
-0.40013099 4.641242 22.750513
-0.54778099 5.3202319 22.950754
-0.399791 4.6028442 22.741444
-0.54941201 5.2944608 23.00539
-0.39863101 4.4870658 22.709867
-0.54910302 5.1833172 23.012587
-0.39781499 4.4456878 22.682819
-0.54847199 5.1429291 22.998569
-0.39763299 4.4085579 22.679327
-0.54758298 5.1009822 22.976648
-0.39578599 4.2890992 22.621143
-0.54371798 4.96842 22.87512
-0.39618599 4.2557998 22.639076
-0.545223 4.9413228 22.925421
-0.54483497 4.866559 22.923889
-0.54163402 4.7752991 22.835796
-0.54242802 4.743793 22.864262
-0.54165202 4.667129 22.8503
-0.53819799 4.5808158 22.789438
-0.542822 4.5345631 22.940145
-0.53643101 4.4633589 22.749903
-0.53463 4.3819151 22.703552
-0.53512198 4.312984 22.727774
-0.53441501 4.2734551 22.710276
-0.53267902 4.1929302 22.665218
-0.52994001 4.1077189 22.590252
-0.52871603 4.0660071 22.556618
-0.52831 3.957453 22.555902
-0.527215 3.9166651 22.525942
-0.52625 3.876596 22.499857
-0.52513403 3.7651701 22.476484
-0.53038102 3.7537119 22.639927
-0.525922 3.697942 22.506763
-0.51969397 3.5644629 22.326168
-0.517564 3.520123 22.263838
-0.51685798 3.482069 22.244974
-0.51541901 3.3711369 22.209745
-0.51529598 3.335695 22.20846
-0.51780301 3.2758169 22.290915
-0.52474999 3.2326729 22.508097
-0.52832198 3.2109721 22.619642
-0.53135198 3.1511641 22.717648
-0.53778797 3.1031561 22.918758
-0.54127598 3.043457 23.030388
-0.544918 3.019984 23.143763
-0.55136102 2.9691241 23.344629
-0.0030799999 10.978387 11.337955
-0.002717 10.925313 11.352264
-0.003664 10.936246 11.435357
-0.0050559998 10.914467 11.59209
-0.0049990001 10.875636 11.622248
-0.0073330002 10.840319 11.878105
-0.010786 10.949386 12.115538
-0.096355997 10.895953 11.458054
-0.096716002 10.854564 11.520881
-0.093726002 10.734069 11.425283
-0.099673003 10.770405 11.610905
-0.0066630002 10.180454 12.126407
-0.00095999998 9.8855028 11.837916
-0.100007 10.454546 11.916192
-0.0023060001 9.9087238 11.942805
-0.099299997 10.394263 11.920471
-0.003672 9.9512787 12.034426
-0.100958 10.39256 12.031962
-0.092188999 10.071949 11.724248
-0.111435 10.654591 12.501121
-0.110644 10.609683 12.486484
-0.0074959998 9.949769 12.385565
-0.10553 10.407103 12.319374
-0.0061860001 9.8538122 12.341154
-0.097938001 10.127152 12.055029
-0.097981997 10.109692 12.071934
-0.10393 10.241436 12.351296
-0.101593 10.148361 12.274855
-0.100685 10.100546 12.254342
-0.091870002 9.7674103 11.95233
-0.028488999 10.617727 13.7735
-0.093385004 9.7959728 12.026726
-0.025052 10.448475 13.590528
-0.094383001 9.8082361 12.080823
-0.018391 10.100572 13.251259
-0.029855 10.566981 13.931147
-0.021051999 10.171401 13.43526
-0.017506 9.9585333 13.273954
-0.102068 9.8922815 12.504806
-0.101321 9.8497648 12.489616
