# .PCD v0.7 - Point Cloud Data file format
VERSION 0.7
FIELDS x y z
SIZE 4 4 4
TYPE F F F
COUNT 1 1 1
WIDTH 1547
HEIGHT 1
VIEWPOINT 0 0 0 1 0 0 0
POINTS 1547
DATA ascii
-0.069959998 -4.2947898 12.442161
1.788793 -4.380549 12.503105
0.85953701 -4.4171782 12.580854
1.3132091 -4.5245972 12.360673
2.5142779 -4.3408499 12.521499
1.7841949 -4.4248171 12.447148
0.857831 -4.46311 12.528256
1.30945 -4.5654979 12.298516
-0.071369 -4.3927889 12.475357
-0.14813399 -4.0860739 12.562513
1.7786421 -4.427989 12.397476
0.85544002 -4.4655948 12.476398
1.309952 -4.586453 12.297021
-0.070947997 -4.4049859 12.449781
-0.14814501 -4.1052952 12.556192
1.779837 -4.4504032 12.399926
0.85443902 -4.4776978 12.450765
1.31675 -4.6341152 12.364216
-0.069620997 -4.4025888 12.384799
-0.148157 -4.124506 12.54984
2.5115311 -4.4310608 12.47267
1.77741 -4.5002151 12.360461
0.85442102 -4.5347748 12.429739
1.316906 -4.6915059 12.344311
-0.069596 -4.4586711 12.362248
-0.14256801 -4.1161432 12.337498
1.772099 -4.5036178 12.312654
0.85312301 -4.544558 12.398441
1.317919 -4.714776 12.34816
-0.071718998 -4.5120401 12.447057
-0.139553 -4.099298 12.227132
1.7699209 -4.5160732 12.288984
0.85142702 -4.5514021 12.359677
1.3174 -4.7314429 12.335299
-0.070477001 -4.5105948 12.385817
-0.138298 -4.1029878 12.177324
1.770628 -4.5745182 12.273345
0.84992301 -4.5972281 12.310366
1.319258 -4.7961578 12.333416
-0.069329001 -4.548069 12.314217
-0.139091 -4.1680498 12.184478
1.777849 -4.6148338 12.321785
0.85338598 -4.6413932 12.368402
-0.075205997 -4.6645532 12.560968
-0.139706 -4.1939812 12.198771
1.7843471 -4.6531482 12.364578
0.85466701 -4.669754 12.385397
-0.069779001 -4.5929241 12.318744
-0.140487 -4.2219682 12.218665
1.782645 -4.7046862 12.329809
-0.069275998 -4.6406298 12.27483
-0.141773 -4.2935119 12.242114
1.788661 -4.741858 12.368648
-0.068723999 -4.6498699 12.243451
-0.148442 -4.3943791 12.462999
1.782146 -4.7408881 12.311515
-0.068301 -4.6612301 12.217651
2.320729 -6.4618421 16.402657
-0.148142 -4.4664068 12.424205
0.236696 -3.987226 12.400074
2.3045721 -6.4369869 16.269371
1.736416 -6.9074678 16.749483
-0.14732599 -4.4750009 12.38916
0.23687901 -4.0348158 12.479234
2.3069761 -6.4945502 16.267538
1.736073 -6.9574442 16.724133
-0.097585 -5.2837029 13.429443
-0.14667401 -4.504477 12.352657
0.23650099 -4.0190258 12.307485
0.160312 -3.6777959 12.645275
2.294183 -6.5043478 16.150059
1.730268 -6.9821162 16.640196
-0.14608701 -4.5344791 12.318092
-0.30846199 -3.6896329 12.840665
0.236256 -4.023592 12.19853
0.159833 -3.7510681 12.748793
2.2850161 -6.5002289 16.070271
1.691871 -4.4922361 12.296092
1.729748 -7.0053558 16.623835
-0.145987 -4.5518942 12.307327
-0.30847701 -3.7092879 12.834966
0.236279 -4.0474439 12.207436
0.15981901 -3.770576 12.742998
2.2797101 -6.5327368 16.00959
1.689801 -4.5234718 12.265291
-0.14489301 -4.5752201 12.255711
-0.308496 -3.748564 12.82334
0.236341 -4.0959091 12.226866
0.15980101 -3.809557 12.731182
2.306438 -6.667829 16.192188
1.6879489 -4.555275 12.236404
1.7171381 -7.048192 16.444849
-0.143205 -4.5903511 12.183686
-0.313254 -3.8225219 12.926498
0.23641799 -4.1485209 12.257566
0.159321 -3.8839979 12.834011
-0.14271601 -4.621038 12.152531
0.23645 -4.1926608 12.263413
0.15930399 -3.9232631 12.821838
-0.099067003 -5.5146799 13.406404
-0.14305501 -4.6439819 12.156538
-0.31328699 -3.8818531 12.908545
0.23644701 -4.2127481 12.260693
0.15929 -3.9428849 12.815773
1.696695 -7.0764971 16.171324
-0.098564997 -5.5462899 13.367183
-0.148358 -4.7516632 12.320609
0.236681 -4.290204 12.358643
1.691081 -7.0990691 16.089214
-0.145831 -4.7552438 12.220288
0.237059 -4.3895001 12.514353
1.692264 -7.1295919 16.090853
1.6386369 -6.7936988 16.924919
-0.144958 -4.762023 12.183222
0.236975 -4.396965 12.475622
2.397156 -4.4019618 12.523835
-0.144971 -4.8178329 12.160847
0.236863 -4.4395471 12.415588
-0.097251996 -5.6642761 13.249218
0.23681 -4.4515438 12.389972
1.650811 -4.4094949 12.682813
0.236782 -4.467679 12.375585
2.291661 -7.0142698 15.910619
1.630358 -4.403439 12.486597
1.073666 -7.1308808 16.141758
1.633042 -6.9744649 16.774626
-0.31343201 -4.1379461 12.827703
2.3008101 -7.0699711 15.968371
1.625349 -4.4067488 12.43686
0.97965199 -6.3704972 14.407449
1.625592 -6.9636211 16.67753
-0.098912999 -5.796834 13.274011
0.236753 -4.5432749 12.347592
2.2897179 -7.0565729 15.87429
1.623817 -4.4209352 12.416984
0.97904998 -6.3876152 14.38664
1.638245 -7.05193 16.813368
-0.097062998 -5.7816749 13.186685
-0.30399501 -4.1013069 12.587375
0.23666599 -4.5492592 12.30694
2.2932301 -6.977056 16.921537
1.6203181 -4.4666572 12.366444
-0.16062 -7.0696549 15.83465
0.236837 -4.637537 12.36759
2.2975731 -7.0177698 16.945457
1.619656 -4.4834509 12.353947
0.236871 -4.6637182 12.379031
1.616603 -4.4924788 12.320971
0.327703 -5.8332348 13.72266
-0.30404601 -4.1974602 12.555209
0.23713601 -4.729404 12.490954
1.610064 -4.5275412 12.244195
0.99152201 -6.6713119 14.533434
-0.096739002 -5.9360008 13.099149
0.327306 -5.876936 13.651294
0.236784 -4.7289729 12.32379
2.2821851 -7.0953321 16.768023
1.60875 -4.5419531 12.226054
0.98983097 -6.6790481 14.492373
-0.098558001 -5.9917951 13.165915
-0.261547 -6.8027401 15.913796
0.32720199 -5.893002 13.631183
0.23665901 -4.7277622 12.266317
0.15939701 -4.3791461 12.571785
2.2863071 -7.1611671 16.778547
1.6176521 -4.6088371 12.28779
0.99023098 -6.7269421 14.47862
-0.10011 -6.0629249 13.212158
-0.260557 -6.8371849 15.859489
0.32673201 -5.9111328 13.559723
0.159522 -4.4053731 12.524189
2.2931609 -7.2367239 16.810793
1.62111 -4.6579952 12.303094
1.083423 -4.423378 12.438575
-0.16415399 -7.3821998 15.868646
-0.26074001 -6.8883791 15.843634
0.32628101 -5.930521 13.492062
0.159712 -4.4245129 12.45789
1.622839 -4.6826258 12.310674
1.081797 -4.434155 12.40924
-0.104919 -6.2196012 13.383872
-0.25860101 -6.8810358 15.761671
0.34786701 -7.049943 15.916187
1.619789 -4.7099199 12.270141
0.95809197 -6.5538378 13.844217
1.081652 -4.4713702 12.393474
-0.20908099 -6.193439 14.10037
0.34919301 -7.1668239 16.043303
1.619336 -4.7459092 12.251829
2.004864 -4.5081019 12.315207
0.95966899 -6.6103692 13.852461
0.89273 -6.6214771 14.430834
1.082303 -4.5127249 12.388945
-0.26396099 -7.057838 15.895106
0.34940401 -7.227838 16.046375
-0.307715 -4.4770851 12.552464
2.316417 -7.638989 15.844101
1.994356 -4.5190401 12.230693
1.0786591 -4.5315671 12.324386
-0.26302499 -7.092587 15.842023
0.34827301 -7.2183552 15.896638
-0.302598 -4.4704952 12.416557
2.3091829 -7.6368179 15.778866
1.993241 -4.5349002 12.216292
0.96928698 -7.4390202 15.982831
1.7389899 -8.1391983 16.21487
1.077168 -4.542624 12.29684
-0.187893 -5.98068 13.352013
0.348896 -7.2756758 15.95612
0.00035799999 -3.7961509 13.016835
1.998194 -4.5849829 12.235501
0.97363901 -7.5312629 16.049728
1.725031 -8.1137419 16.044428
1.076341 -4.5759082 12.271552
-0.26866701 -7.2511678 15.99386
0.349529 -7.3586812 16.005838
0.0072619999 -3.7083049 12.581834
0.98118502 -6.9543009 14.166256
1.0817159 -4.6421108 12.33168
-0.18481299 -8.1021614 16.58205
-0.261834 -7.1956248 15.746382
2.301465 -7.7291198 15.662188
0.0053659999 -3.762387 12.690921
0.97830498 -6.9497871 14.103779
0.89664203 -6.8372788 14.428073
1.732525 -8.228446 16.083849
-0.181364 -8.0557623 16.426529
-0.26178601 -7.218987 15.733358
2.0643599 -6.8881102 13.898442
1.092917 -8.045228 16.137596
0.89671898 -6.8824029 14.408544
1.732007 -8.2750874 16.052864
1.080744 -4.6935058 12.297008
-0.26378399 -7.2980542 15.775914
0.245508 -6.7517662 15.962148
0.0033430001 -3.877305 12.787676
1.099966 -8.1598501 16.238377
1.735762 -8.3450441 16.065567
1.079929 -4.726656 12.271162
-0.17380799 -7.9974508 16.064337
0.24572299 -6.8417969 16.034361
0.0032339999 -3.898654 12.787409
1.091038 -8.1021509 16.06601
1.735589 -8.368803 16.050797
-0.172906 -8.002984 16.014505
2.2915881 -7.883338 15.492379
1.090449 -8.1706266 16.017242
1.734239 -8.4351654 15.997374
1.432665 -6.7796388 14.093961
1.0105931 -4.3610792 12.54104
-0.17380799 -8.0961494 16.014078
-0.26770201 -7.5050611 15.834637
0.15549199 -5.2201142 13.29808
2.303391 -7.9523592 15.566228
1.096197 -8.249176 16.107042
0.86302102 -6.6908569 13.643176
1.733726 -8.4569016 15.978965
1.438199 -6.8321338 14.145978
1.022366 -4.4455652 12.714452
-0.174632 -8.1383352 16.035139
-0.26814899 -7.5363898 15.837326
0.24590901 -7.0066109 16.073647
0.154211 -5.3654552 13.599708
2.302664 -7.9734941 15.548563
0.082928002 -4.306509 12.450242
1.097284 -8.2842007 16.113609
0.86258 -6.7072611 13.623839
1.544705 -7.4212441 14.022198
1.010201 -4.3973541 12.521881
-0.174895 -8.1685572 16.033073
-0.26798999 -7.5581131 15.820185
0.32929099 -6.5702581 13.611859
0.245626 -6.9788189 15.946
0.156683 -5.1413651 12.987131
2.3115871 -8.0796299 15.575862
0.082474001 -4.3786168 12.47136
1.096597 -8.3518724 16.062267
0.865987 -6.8051839 13.661722
1.421102 -6.8222289 13.910632
1.0083359 -4.4443412 12.473151
-0.205237 -6.624011 13.742221
0.356334 -8.1283979 16.57395
0.15683401 -5.1842122 12.922269
2.2096491 -7.6105199 15.842015
0.082911 -4.381866 12.421384
1.100858 -8.4171419 16.124947
1.745643 -8.6470594 16.034534
1.419831 -6.83637 13.885766
1.0056241 -4.4481082 12.425101
0.355537 -8.1099586 16.47368
0.24582399 -7.1192088 15.994911
0.158135 -5.0727558 12.596237
2.2034571 -7.6111879 15.782019
0.083054997 -4.3953252 12.399583
2.0706799 -6.6553798 17.006741
1.097682 -8.4116516 16.055525
1.747173 -8.6804199 16.036722
1.426791 -6.8972192 13.953415
0.54443401 -4.2802839 12.50648
1.006472 -4.4719791 12.431304
-0.176493 -8.326437 16.034128
-0.200728 -6.5931501 13.574755
0.245764 -7.1337872 15.96201
0.158217 -5.0828218 12.566194
2.1878769 -7.6236691 15.625244
0.083109997 -4.4493322 12.371444
1.472562 -4.365262 12.489713
1.09789 -8.4875412 16.019424
1.6257451 -8.1023836 16.152235
0.54843903 -4.3904738 12.633087
1.007308 -4.5338659 12.423374
-0.19957 -6.6366129 13.506227
-0.34034401 -5.2854929 13.120878
0.245785 -7.2132559 15.941112
2.182143 -7.6254702 15.568932
0.083157003 -4.4661288 12.358935
2.1124451 -7.1055002 16.154825
1.469646 -4.3741212 12.454902
1.099474 -8.5274858 16.034233
1.6126029 -8.0516396 15.992389
0.54429197 -4.3553071 12.475906
1.005088 -4.540071 12.382768
-0.17873301 -8.4744301 16.07324
-0.218087 -6.9600291 14.095558
0.245781 -7.2386122 15.931685
2.178014 -7.6333489 15.525084
0.082795002 -4.4977059 12.385702
2.112653 -7.1311579 16.145571
2.0578899 -6.7395329 16.840179
1.4682781 -4.3883572 12.435048
1.0997699 -8.5550175 16.026186
1.752799 -8.835844 16.025724
1.614181 -8.0853567 15.997557
0.54371202 -4.3668489 12.448497
1.002131 -4.541882 12.330984
-0.178174 -8.4867373 16.037176
-0.34801799 -5.4001131 13.283404
0.24583299 -7.2749929 15.945756
0.083475001 -4.5287371 12.297324
2.116771 -7.2213311 16.14633
1.4663171 -4.4383712 12.395788
1.101864 -8.649189 16.022591
0.88545102 -7.2221861 13.94781
1.753667 -8.9146137 15.992768
1.618935 -8.1867056 16.012527
1.001374 -4.5940161 12.298489
-0.178508 -8.5683489 16.011223
-0.216105 -7.0135241 13.987815
0.33361399 -7.0870972 13.951608
-0.34984899 -5.4789338 13.300364
0.245783 -7.3399019 15.893431
0.082762003 -4.5733342 12.357519
2.116327 -7.2444868 16.13147
2.070389 -6.8895841 16.909925
1.463982 -4.4489498 12.366539
0.98178798 -7.497787 13.895186
1.757069 -8.9590464 16.013416
1.620514 -8.2205639 16.017426
1.0075001 -4.6490211 12.38438
-0.34835801 -5.4844909 13.256887
0.153345 -5.7557068 13.654542
0.083044 -4.600234 12.31521
2.063189 -6.914712 16.824068
1.4624209 -4.4810901 12.337698
0.978827 -7.5110388 13.81938
1.756747 -9.0062408 15.981839
1.62369 -8.2883739 16.026886
1.009086 -4.696331 12.393961
-0.348205 -5.523489 13.236004
2.1958809 -7.8947811 15.566256
0.071723998 -5.059752 13.379272
1.456395 -4.4968162 12.26612
1.0994951 -8.7485476 15.912854
1.749941 -9.0152102 15.884825
1.626848 -8.3563347 16.036209
1.342792 -6.6893339 14.175724
1.0056289 -4.7135739 12.327422
0.35438001 -8.3964624 16.167095
-0.40537 -6.1365728 14.547566
2.191982 -7.90312 15.523977
0.083012998 -4.656641 12.293735
2.070549 -7.0202909 16.85758
1.455223 -4.5112801 12.248001
1.880513 -4.4057498 12.623133
1.758278 -9.0889177 15.955044
1.626686 -8.3800459 16.021418
1.34469 -6.722445 14.188611
1.00611 -4.7353592 12.327534
-0.18109199 -8.7745018 16.034882
-0.40798399 -6.1850882 14.598542
0.152201 -5.9778609 13.876566
2.1954279 -7.9645929 15.525575
0.083198003 -4.6868062 12.260547
1.456568 -4.553679 12.246865
1.876204 -4.4328508 12.577608
1.762042 -9.1601763 15.964281
1.624166 -8.4141636 15.967008
1.3501101 -6.7985182 14.233727
1.006224 -4.7737389 12.314545
-0.18008199 -8.8011274 15.967299
0.35390401 -8.4426451 16.074659
-0.409567 -6.2458582 14.615757
0.152458 -5.9927578 13.795665
2.1974831 -8.0206051 15.516525
0.083255999 -4.7212749 12.238561
1.462743 -4.6141891 12.292087
1.763744 -9.2193909 15.952789
1.628275 -8.4879074 15.986306
1.3798389 -7.0864468 16.106192
-0.129994 -7.7013621 13.92483
-0.192029 -6.8163371 13.105725
0.35415599 -8.5072517 16.076439
-0.36104 -5.7954741 13.47143
0.153808 -5.8886342 13.450293
2.1965771 -8.0645018 15.484332
0.075419001 -5.0590348 12.967335
2.0588019 -7.1303768 16.687136
1.465637 -4.6626339 12.305417
1.110236 -9.0273943 16.002918
0.98603302 -8.5928421 15.823709
1.763765 -9.2683868 15.923843
1.627022 -8.5293741 15.945656
1.384277 -7.1630788 16.143942
-0.129893 -7.7420211 13.897187
0.35425001 -8.5614309 16.058508
-0.383145 -6.0637898 13.964662
0.153157 -5.9997988 13.586735
0.070293002 -5.2759032 13.445003
2.1295359 -7.5937161 16.102243
1.463691 -4.6741109 12.279679
1.110335 -9.0529957 15.990556
0.986642 -8.6239557 15.822527
1.7687 -9.3225803 15.958937
1.456718 -7.5234928 14.050755
1.33165 -6.794642 13.955747
1.388574 -7.2143078 16.190922
-0.183522 -9.0035267 16.036688
0.35440901 -8.5957012 16.062702
-0.470934 -6.9902081 15.984865
2.353323 -8.8449183 15.545645
2.118005 -7.5969558 15.983856
1.4632829 -4.710124 12.26147
1.396336 -4.326694 12.525188
1.1150939 -9.1505756 16.045002
1.785036 -9.4705162 16.093548
1.438987 -7.4586658 13.831763
1.329883 -6.82658 13.913205
-0.15372901 -8.3600578 14.815395
-0.46495399 -6.9770589 15.824523
0.074657999 -5.1863389 12.996025
2.110621 -7.6161962 15.899362
1.466759 -4.7609172 12.279952
1.414686 -4.4326692 12.701052
1.114122 -9.1897202 15.999062
1.775021 -9.458847 15.963365
1.417475 -7.3692808 13.571358
1.3351589 -6.9018102 13.955751
0.46820399 -4.3983622 12.518062
-0.18661299 -9.1746883 16.104382
0.35532299 -8.7486124 16.106661
-0.409805 -8.038456 16.862705
-0.46787801 -7.056222 15.869954
2.37286 -8.9982758 15.642458
0.075175002 -5.185523 12.938101
2.103878 -7.6133189 15.832241
1.395763 -4.3820391 12.499252
1.421589 -7.4153109 13.605149
0.46938601 -4.437902 12.56766
-0.183893 -9.1356859 15.981417
-0.19774701 -7.076335 13.20193
0.35493299 -8.7500525 16.051058
-0.46788701 -7.0806198 15.858959
2.3603301 -8.9934978 15.525634
0.067359999 -5.5332651 13.65803
2.088438 -7.599009 15.682135
1.3928289 -4.409348 12.455709
1.4238009 -7.4706259 13.606355
0.46757001 -4.4454198 12.469376
-0.133462 -7.996295 13.942438
-0.468775 -7.138536 15.85684
2.36517 -9.0615597 15.53146
0.066962004 -5.5906458 13.677515
2.0832269 -7.6257458 15.615641
1.389179 -4.4336739 12.404491
1.426664 -7.5299368 13.614143
0.46680099 -4.4703522 12.419798
-0.18512601 -9.2634811 15.973837
-0.469486 -7.194818 15.850743
2.3615561 -9.070056 15.491803
0.066132002 -5.6444011 13.746153
2.0756171 -7.6184092 15.54162
1.388804 -4.451242 12.393889
1.647614 -8.925787 16.022287
0.46654999 -4.4851542 12.401625
-0.13884 -8.188529 14.119353
-0.220442 -7.5792298 13.865269
0.355508 -8.9076986 16.04318
-0.401921 -8.088253 16.575842
-0.46981099 -7.2225552 15.846779
1.387507 -4.5031052 12.359931
0.887604 -7.796021 13.685127
1.6462049 -8.9906416 15.964699
0.46624801 -4.5370178 12.367459
-0.134719 -8.1551809 13.918206
-0.220925 -7.6517549 13.845259
-0.38771099 -7.9731331 16.159746
-0.474951 -7.3508849 15.930298
2.36905 -9.197114 15.487381
1.971459 -6.960104 16.988089
1.3854949 -4.5142798 12.332446
1.649845 -9.0380793 15.990395
0.46567899 -4.5460119 12.334243
-0.138906 -8.2770414 14.071353
-0.216739 -7.5979681 13.701189
-0.38879001 -8.0124846 16.175814
-0.47172299 -7.3403692 15.844758
1.95828 -6.9335632 16.852562
1.381484 -4.5176482 12.284457
0.89371502 -7.9087429 13.781397
1.6547509 -9.0936069 16.029785
0.46511099 -4.5549111 12.301029
-0.149353 -8.5500727 14.471857
-0.38544399 -7.9919 16.07431
-0.47141501 -7.3612981 15.826094
2.084965 -7.8620691 15.547469
1.948403 -6.9871058 16.762957
1.379061 -4.5770202 12.270259
1.6495301 -9.1535311 15.962569
0.67673802 -6.2852421 13.67774
0.46480501 -4.663518 12.413279
-0.14347801 -8.4109917 14.095171
-0.223922 -7.7633271 13.792928
0.35361201 -9.1744051 16.049129
-0.38777199 -8.0529566 16.00909
-0.47747201 -7.4635329 15.849903
2.085187 -7.8868642 15.536978
1.382867 -4.6107559 12.302214
1.653334 -9.2022829 15.98955
0.678698 -6.3326421 13.724002
0.46141201 -4.6204238 12.245673
-0.14216299 -8.4011011 14.030998
0.353623 -9.1990767 16.034809
-0.47731099 -7.4861622 15.834669
2.086061 -7.914413 15.53173
1.38758 -4.648191 12.343382
1.653029 -9.2248287 15.971753
0.462827 -4.665205 12.305609
1.273211 -7.0436201 16.139452
-0.48269901 -7.5697179 15.945312
0.063127004 -5.907023 13.6046
2.0895679 -8.0007858 15.522585
1.9211611 -7.0033851 16.450853
1.383953 -4.690165 12.284461
1.654032 -9.3044949 15.938591
0.55538702 -5.3328228 12.694444
0.46279001 -4.7208061 12.281835
1.272982 -7.1163359 16.102655
0.33228201 -7.9244909 13.663906
-0.38850299 -6.598588 13.777688
0.239775 -7.5267138 14.207762
0.064617999 -5.8662548 13.458658
2.090225 -8.027422 15.515379
2.0584011 -7.7805471 16.425283
1.944159 -7.1239438 16.656836
1.3848571 -4.712564 12.286463
1.668267 -9.4210358 16.078096
0.55615503 -5.364233 12.713647
0.46262899 -4.7366161 12.267082
1.2739609 -7.1477151 16.1061
-0.13787501 -8.4052696 13.800741
0.33502999 -8.1214638 13.947078
-0.39586601 -8.3133764 16.146833
-0.371378 -6.4291582 13.380084
0.239519 -7.4850588 14.080273
0.065711997 -5.841527 13.34932
2.0908821 -8.0540552 15.508127
1.383402 -4.7254648 12.264342
1.664802 -9.4231844 16.025776
1.335391 -7.3676548 13.758816
0.46262601 -4.7553468 12.259741
-0.135563 -8.3699207 13.697966
-0.39242601 -8.2904148 16.043818
-0.365906 -6.3885798 13.246443
0.23948599 -7.4969988 14.051085
2.0580201 -7.8796821 16.372835
1.333675 -7.4191208 13.70326
0.33295599 -8.0682058 13.666724
-0.39299399 -8.3728514 16.020622
-0.37594801 -6.5628009 13.443422
0.239659 -7.594584 14.075233
1.79854 -6.792871 14.102885
1.41333 -8.1194181 16.221302
-0.30156499 -7.1098962 13.617911
-0.37237799 -6.5430541 13.352827
0.244247 -8.7372446 16.071663
0.036814 -7.1627388 15.943385
2.265698 -6.733026 13.401803
1.399642 -8.0515442 16.027493
0.47357699 -5.0583439 12.737352
-0.298866 -7.0927138 13.536508
-0.50220603 -8.0360355 16.266157
0.24176601 -8.1509476 14.967539
1.790773 -6.8453541 13.992653
2.396394 -7.3543978 13.383153
1.8991539 -7.1613441 16.133286
1.329344 -7.494236 13.593002
0.65347499 -7.1062951 16.090933
0.47677201 -5.1784601 12.863318
-0.39758599 -8.561965 16.075796
-0.512954 -8.2344198 16.470463
0.24038 -7.8668671 14.306191
0.036276001 -7.2844472 15.949072
1.789956 -6.863214 13.974888
1.670963 -9.6838312 15.956164
1.5365911 -8.9174738 16.037571
1.407601 -8.204277 16.081358
0.47984299 -5.2578211 12.999375
-0.31834701 -7.4544692 14.000123
-0.50700498 -8.1914921 16.324183
0.244569 -8.9248018 16.115986
0.035560001 -7.3651061 15.993082
0.69125301 -6.8653102 13.90303
1.535314 -8.957778 15.994011
1.408973 -8.2629404 16.073275
0.47843301 -5.2697992 12.91647
-0.224226 -8.1511106 13.586553
-0.39976501 -8.667964 16.093191
-0.50182498 -8.1821489 16.182999
0.244555 -8.9613962 16.065395
0.062537998 -6.2455082 13.520821
1.40361 -8.2750406 15.976925
0.479725 -5.3349242 12.960919
-0.223212 -8.1737671 13.530531
-0.31258699 -7.4574671 13.804941
-0.496034 -8.1646414 16.028013
0.24459299 -9.0167627 16.047815
0.064029999 -6.2013988 13.375837
1.542353 -9.079566 16.034769
1.409658 -8.3416624 16.043352
0.47933 -5.3469439 12.934224
-0.31103101 -7.4561729 13.753195
-0.49277899 -8.151391 15.942629
0.244571 -9.033412 16.019896
0.062577002 -6.3066812 13.489644
-0.062178001 -6.8495908 15.829456
0.68983102 -6.950562 13.808285
1.548386 -9.1701374 16.076832
1.413985 -8.421031 16.073483
-0.225483 -8.2803459 13.563265
-0.400653 -8.8051872 16.049456
-0.49385899 -8.2133894 15.941796
0.24128599 -8.2452927 14.555871
0.062600002 -6.3470888 13.468191
-0.063547 -6.9331961 15.886641
1.547676 -9.2144566 16.039581
1.413595 -8.4675741 16.041904
-0.21323401 -8.0864849 13.163486
-0.40299201 -8.8890419 16.082777
-0.49638399 -8.2923059 15.972648
0.241356 -8.3030872 14.552536
-0.064359002 -7.0032949 15.912306
1.548155 -9.2667694 16.015795
1.413627 -8.5168419 16.01532
-0.24002001 -8.6458416 13.957069
-0.40369499 -8.9493713 16.073948
-0.49643299 -8.3423214 15.948368
-0.066266999 -7.0770602 16.01078
1.546851 -9.2821827 15.985912
1.41256 -8.5338173 15.988014
0.47686201 -5.434679 12.759742
-0.238901 -8.6457653 13.909842
-0.40227199 -8.9531898 16.023569
-0.36971 -6.858047 13.118492
0.240225 -8.0697441 14.007871
0.059446 -6.5923262 13.704951
-0.066109002 -7.1221261 15.979589
2.2826841 -7.157701 13.313684
1.54965 -9.3507919 15.98939
-0.231741 -8.5492601 13.665658
-0.30844 -7.6080599 13.58314
-0.499504 -8.4528151 15.977796
1.560364 -9.4752417 16.084625
1.264779 -7.5692139 14.011502
1.144999 -6.8339572 13.92444
-0.22113401 -8.3841171 13.317917
-0.40880999 -9.1501274 16.136599
-0.499551 -8.5028582 15.953005
0.244027 -9.1182642 15.555627
2.2716811 -7.1801682 13.210799
1.551605 -9.4378614 15.967525
1.262906 -7.5771232 13.975278
1.308989 -8.0675173 16.298334
-0.221177 -8.4055796 13.306518
-0.409675 -9.1880426 16.144749
-0.50437802 -8.5857792 16.046741
2.2777929 -7.2620721 13.214969
1.7938091 -7.1081958 16.149544
1.310616 -8.1544714 16.283384
-0.22940899 -8.630702 13.517912
-0.40544599 -9.1993961 15.994722
-0.39680699 -7.349309 13.632004
0.23993 -8.1334448 13.730179
2.273109 -7.265708 13.174344
1.786189 -7.0986409 16.062206
1.297158 -8.0787611 16.075554
-0.226133 -8.5866852 13.405825
-0.31480199 -7.8510609 13.664218
-0.50131202 -8.6475067 15.926319
0.239704 -8.0927896 13.616899
0.144132 -7.91681 14.391047
2.290777 -7.3483901 13.273305
1.790361 -7.14221 16.092888
1.2953269 -8.0896854 16.036371
-0.224848 -8.5819139 13.354024
-0.32744199 -8.0641079 13.974939
-0.50352299 -8.6991758 15.961729
0.24367499 -9.1449213 15.280424
-0.067575 -7.4325118 15.94166
2.148833 -9.1246071 15.510275
1.697122 -6.8591671 13.97239
1.56286 -9.7136974 15.976887
1.30001 -8.19876 16.065466
-0.21251599 -8.397337 12.944086
-0.40981299 -9.3900576 16.035458
-0.50490701 -8.790328 15.952112
0.243774 -9.2268324 15.256045
0.065095998 -6.5845642 13.08247
2.1531849 -9.1690416 15.530033
2.0613999 -8.6895304 15.985522
1.7019579 -6.90312 14.006074
1.308459 -8.2875967 16.174572
-0.21460301 -8.4592991 12.994179
-0.40825501 -9.3909521 15.981434
-0.50640398 -8.8335047 15.971461
0.243081 -9.06497 14.944707
0.064782001 -6.6193848 13.100584
2.153631 -9.1949482 15.519122
2.0646901 -8.7295666 15.99978
1.704087 -6.9345241 14.014832
2.264189 -7.1373582 13.941215
1.304059 -8.2788839 16.098104
-0.21597099 -8.5069771 13.022513
-0.50457299 -8.8353996 15.917679
0.243283 -9.137785 15.010229
2.1595449 -9.294466 15.521553
2.0846341 -8.8978729 16.12685
1.940894 -8.1177483 16.148893
2.2639551 -7.2003899 13.905897
1.3009109 -8.3285599 16.013346
-0.31744 -8.081419 13.622519
-0.40343699 -7.6416001 13.663167
0.24092799 -8.5683794 13.958221
2.161293 -9.3266478 15.520581
2.067203 -8.8394766 15.965734
1.926015 -8.0720158 16.000156
2.2623751 -7.2160559 13.884203
1.304343 -8.3795843 16.049614
-0.315613 -8.074028 13.563929
-0.40723199 -7.7103162 13.734425
2.1639099 -9.363039 15.526306
2.0795209 -8.9228745 16.055782
1.9273731 -8.1030283 15.999933
1.303125 -8.3947802 16.018969
-0.31681401 -8.1136694 13.581968
-0.50831199 -9.0054092 15.931309
0.239646 -8.2639894 13.386645
2.1687419 -9.4576674 15.519296
2.08921 -9.0432892 16.094893
1.932237 -8.199873 16.005823
1.306344 -8.4933596 16.025024
1.013792 -6.6860628 13.83223
-0.226486 -8.8843737 13.233097
-0.31905201 -8.2119036 13.601467
-0.51079899 -9.1109934 15.944136
0.240091 -8.4303761 13.510875
2.1709249 -9.4920664 15.521369
2.0801909 -9.0243626 16.004906
1.9306951 -8.21702 15.978957
1.307085 -8.5237246 16.022285
1.029744 -6.8404889 14.090135
-0.225421 -8.8830328 13.187974
-0.322808 -8.2920561 13.683579
-0.51031399 -9.1294384 15.919563
2.1750619 -9.5360403 15.538506
2.0845089 -9.0698376 16.027006
1.934953 -8.2620859 16.004833
1.3064801 -8.54354 16.000238
-0.22551601 -8.9054794 13.1774
-0.326563 -8.3724861 13.765472
-0.51244301 -9.1812267 15.951838
2.1785941 -9.6246014 15.520438
2.090302 -9.1716928 16.032412
1.9403991 -8.3621168 16.015055
0.71051502 -7.9629331 13.988993
1.022433 -6.8646402 13.924169
-0.29584399 -7.9476709 12.956206
-0.51389802 -9.2740736 15.941242
2.182081 -9.6655588 15.532215
2.08867 -9.1882753 16.004368
1.941565 -8.3923807 16.012529
0.63346601 -7.756053 14.895654
-0.303096 -8.0833368 13.125968
-0.51261997 -9.2822037 15.899293
0.052931 -7.5239139 13.98773
2.1864691 -9.7347269 15.535304
2.0919919 -9.2535791 16.002935
1.728381 -7.3944492 14.056267
2.157145 -6.99014 13.900106
0.63410997 -7.8131242 14.892417
-0.295928 -8.0091782 12.922175
-0.398444 -7.8493128 13.400849
0.052547 -7.5862598 13.999161
-0.075496003 -8.1504402 16.152014
2.1906209 -9.8029413 15.536571
2.0950911 -9.3179598 15.999669
1.727039 -7.4307961 14.020972
2.1601801 -7.0436382 13.899446
-0.31117001 -8.2945843 13.27849
-0.40159401 -7.9316478 13.444757
0.050528999 -7.7075038 14.165247
-0.074221 -8.138546 16.068237
2.1947601 -9.8473864 15.552932
1.691669 -7.2770329 13.690025
2.168761 -7.0960641 13.948315
-0.31801701 -8.4256668 13.436722
-0.517456 -9.4683676 15.93226
-0.074543998 -8.1980639 16.062189
1.706388 -7.3920908 13.7996
0.667979 -8.5623999 15.985336
-0.325506 -8.5889788 13.59784
-0.51780897 -9.5225058 15.911049
-0.022895999 -6.7375412 13.159056
1.696734 -7.3858881 13.689583
0.66865897 -8.6241007 15.981313
-0.32494199 -8.62181 13.557639
-0.40873399 -8.129591 13.53737
-0.023223 -6.788044 13.157361
0.533153 -7.5045142 14.930177
-0.32778999 -8.7106552 13.602289
-0.41051799 -8.1952038 13.550925
-0.022074001 -6.7744141 13.083203
2.1753819 -7.2694559 13.915505
0.52783602 -7.4037108 14.678547
-0.32501999 -8.6861935 13.520389
-0.40726101 -8.1726847 13.468558
-0.075921997 -8.4128513 16.051086
2.1612639 -7.2593422 13.795018
0.70621598 -8.2078505 13.677958
0.67276901 -8.8243093 16.051052
0.50632101 -6.9453378 13.686616
-0.31094399 -8.4956379 13.145771
-0.384354 -7.9074292 12.953499
-0.077258997 -8.5029402 16.100367
2.1552351 -7.2788172 13.730395
0.706191 -8.2486334 13.650498
0.67172498 -8.8528357 15.986849
0.53476602 -7.6559281 14.942073
-0.323268 -8.740942 13.424378
-0.38439599 -7.9480672 12.930372
-0.077284999 -8.5286341 16.08886
2.1504469 -7.2817898 13.685958
0.71176898 -8.3623285 13.787073
0.67383802 -8.9180422 16.04422
0.53591299 -7.7058258 14.981471
-0.32829601 -8.8452892 13.53504
-0.382247 -7.9389839 12.87238
-0.077852003 -8.620965 16.082026
0.67393202 -8.9929132 16.003954
-0.328168 -8.9062252 13.491754
-0.38053501 -7.9753289 12.799665
-0.078449003 -8.6639633 16.101879
0.67440301 -9.0265188 16.005487
0.52711701 -7.5867581 14.537908
-0.38202801 -8.0153856 12.819191
-0.078125 -8.6790562 16.070845
0.67661899 -9.0943222 16.065722
-0.326123 -8.9135752 13.41447
-0.39832601 -8.2577839 13.152863
-0.41189 -8.5054464 13.402155
1.6335059 -7.416029 14.035718
0.67739302 -9.2071257 16.032688
-0.41892299 -8.6231489 13.537837
1.632785 -7.4337168 14.017164
0.71236002 -8.5799656 13.666683
0.67678702 -9.219533 15.997672
1.048924 -7.696311 14.041815
-0.413923 -8.574893 13.419055
0.71057802 -8.6110439 13.577694
0.67657799 -9.288043 15.945676
-0.41727099 -8.6838198 13.450364
-0.038965002 -7.6830468 13.810042
0.68085098 -9.3979692 16.073441
-0.411322 -8.6215019 13.311943
0.67798501 -9.3648682 15.962874
-0.40402699 -8.5399361 13.145475
-0.40579 -8.6258192 13.143418
-0.40546 -8.6414394 13.123336
0.52587801 -7.9064932 14.283256
0.53719598 -8.2562418 14.742332
0.53830802 -8.3067408 14.778
-0.39730701 -8.7059002 12.834944
1.867065 -9.1306963 16.01148
-0.39879599 -8.7472467 12.852491
-0.39756301 -8.7692471 12.800512
-0.056515001 -8.6644812 14.532415
1.873108 -9.2623138 16.010721
0.52527601 -8.1699734 14.087287
-0.39642501 -8.7921667 12.75028
-0.059523001 -8.8094692 14.668795
1.872964 -9.3104286 15.979931
0.53758198 -8.5322189 14.59539
-0.39914599 -8.8716698 12.779648
1.872066 -9.3298607 15.956848
-0.40047601 -8.9109459 12.793443
1.887511 -9.4660616 16.07279
-0.035337999 -8.405735 13.140397
-0.032600999 -8.3312483 12.983643
-0.033762001 -8.3918657 13.032386
0.52108401 -8.5374451 13.593427
-0.039221998 -8.6446877 13.282314
0.52883703 -8.8123178 13.880131
0.524149 -8.703517 13.667104
-0.038848002 -8.6730042 13.237052
-0.040470999 -8.7931519 13.283926
-0.040458001 -8.8134565 13.270206
0.52093798 -8.8959179 13.330086
0.522138 -8.9502487 13.365658
0.52099103 -9.0357466 13.228721
0.52393198 -9.141058 13.335673
0.525226 -9.2187576 13.359343
0.52440399 -9.3128023 13.23337
0.52485502 -9.3459234 13.236648
0.52514702 -9.3743734 13.233384
-0.14267901 -9.845685 13.146042
-0.14681 -9.9834185 13.282356
-0.14104401 -9.9026937 13.013698
-0.140807 -9.9163952 12.990383
1.793148 -11.728553 14.634566
-0.140249 -9.9621773 12.926497
1.793004 -11.749707 14.614701
-0.14234599 -10.043061 12.987507
-0.169984 -11.062101 13.825654
1.781265 -11.902357 14.303069
-0.34535301 -9.4519138 13.744894
0.343685 -10.455418 13.374931
-0.180591 -11.577561 14.052837
0.34341699 -10.48901 13.291508
-0.35075501 -9.7172031 13.759782
-0.171718 -11.333383 13.722606
0.36298299 -12.035664 15.155551
-0.34878999 -9.7040672 13.697802
1.006665 -11.631149 14.339888
1.682974 -11.73312 14.650496
-0.169875 -11.322008 13.62476
1.669757 -11.693632 14.466329
0.99346 -11.543556 14.01484
1.651472 -11.589942 14.251868
0.99115503 -11.551516 13.937597
1.639336 -11.534966 14.097932
1.026275 -12.136787 14.4916
-0.36657 -10.279316 13.941535
0.24530999 -10.804413 14.199605
2.322469 -11.689719 14.3711
0.991135 -11.65525 13.843849
1.666557 -11.863536 14.266953
2.3220849 -11.731129 14.331357
0.99636501 -11.774845 13.896285
1.667109 -11.911069 14.234249
-0.416742 -11.277833 15.063299
0.244064 -10.490801 13.627373
0.99936301 -11.840717 13.929117
1.975426 -14.002243 15.463844
-0.34718901 -10.035094 13.406772
0.24419101 -10.542796 13.650097
1.008852 -12.02553 14.054371
1.973453 -14.033303 15.40254
0.244247 -10.588282 13.621808
1.976275 -14.102356 15.381683
0.244261 -10.614849 13.569887
1.0011851 -11.972133 13.864554
-0.338011 -9.9707212 13.115699
0.248879 -12.004582 15.244709
0.142564 -10.132813 13.859214
0.24394 -10.568608 13.345272
0.14116099 -10.426783 14.116182
0.99599302 -11.975459 13.69859
1.568918 -11.69871 14.631433
-0.33817899 -10.055715 13.059357
1.017867 -12.330307 14.051401
-0.33822501 -10.076915 13.045215
1.026545 -12.526288 14.138362
1.534928 -11.490646 14.200932
-0.336198 -10.100264 12.952636
-0.49829799 -10.759172 14.515537
0.139401 -10.830774 14.41958
1.036626 -12.702591 14.288712
1.540517 -11.560997 14.241127
0.24541099 -11.08616 13.720432
0.13846999 -11.003095 14.597451
1.02984 -12.619382 14.153755
1.527072 -11.464874 14.082458
-0.481181 -10.541688 14.138774
0.143466 -10.238494 13.563176
0.35692099 -12.231751 13.813944
-0.46418399 -10.345435 13.750436
0.14264999 -10.443471 13.697792
1.944714 -14.187842 14.778504
0.357032 -12.259614 13.802216
-0.46558601 -10.388482 13.762729
0.14386 -10.274416 13.439075
1.941004 -14.17963 14.725159
0.357501 -12.317136 13.822926
-0.38337001 -11.135533 13.930631
0.14276101 -10.474224 13.650983
1.847065 -13.956189 15.43342
0.78905201 -11.132574 14.785656
1.5620281 -11.944753 14.296291
2.207504 -11.673423 14.336395
1.841397 -13.931057 15.358955
1.558248 -11.932752 14.238361
0.14272 -10.581252 13.614934
-0.053365 -9.3165445 13.917078
2.204536 -11.699319 14.278476
1.843235 -13.993069 15.331242
-0.51384097 -11.29543 14.608896
0.142915 -10.601592 13.555186
-0.054887999 -9.4147892 13.968598
0.352709 -12.058938 13.212209
-0.05576 -9.468051 13.999929
-0.37030599 -11.079503 13.481344
-0.50334299 -11.197853 14.349725
1.118523 -14.355741 15.284829
1.660429 -13.003205 15.147759
0.35218701 -12.065816 13.09875
-0.052168999 -9.4260731 13.7588
1.1134371 -14.320658 15.155094
-0.36254701 -11.013327 13.238887
0.24819399 -12.160084 14.153532
1.1048141 -14.206213 14.990652
0.352801 -12.169925 13.088372
-0.36379501 -11.058345 13.250451
0.246356 -11.608152 13.488393
-0.052230999 -9.4937668 13.72095
0.78287297 -11.295979 14.395839
-0.35983801 -11.022866 13.128131
2.53776 -13.842603 14.938509
0.81172597 -11.910607 15.06625
0.24936099 -12.576972 14.401571
2.530519 -13.844438 14.84904
0.77403998 -11.206079 14.106265
2.1097419 -11.662182 14.506043
1.694109 -13.585595 15.234892
0.248786 -12.45492 14.048765
2.1065271 -11.686252 14.444916
-0.36378601 -11.286199 13.065698
0.249799 -12.786153 14.323295
2.5378671 -14.023289 14.762623
2.1207261 -11.796087 14.532235
0.80575103 -11.969446 14.765246
0.67786902 -11.030572 14.764499
0.46878201 -13.412899 12.723922
-0.367073 -11.434187 13.070475
0.25129101 -13.291999 14.692413
0.020528 -11.849042 15.279948
2.0918851 -11.704274 14.243534
1.557704 -13.058141 15.410468
0.46882001 -13.432311 12.702943
-0.36128801 -11.338714 12.925225
0.25001001 -12.905021 14.233079
0.020354999 -11.884967 15.277041
2.0919099 -11.726067 14.225244
1.8114949 -13.73357 12.986734
1.55706 -13.075225 15.382516
0.46942699 -13.481233 12.708894
-0.459436 -10.962119 13.124655
0.25005001 -12.92954 14.215815
2.111321 -11.912567 14.312363
1.774211 -14.007529 14.085147
0.99686098 -14.050374 15.690578
1.691331 -13.810369 14.966929
1.5616159 -13.189295 15.370436
0.468061 -13.460659 12.574348
-0.368119 -11.55804 13.007188
0.24926899 -12.713016 13.857017
2.5371039 -14.218425 14.556663
0.020335 -11.987306 15.213245
1.779321 -14.074674 14.107853
1.562722 -13.223407 15.361793
1.313019 -11.304306 14.239037
0.46787199 -13.467949 12.542586
-0.36353999 -11.485839 12.889124
0.249015 -12.644744 13.742819
0.03207 -11.257554 14.26802
1.774128 -14.049152 14.039899
1.563695 -13.256202 15.351584
1.321995 -11.418532 14.334028
0.46788299 -13.485587 12.520185
0.36313599 -13.430481 13.471626
-0.37013799 -11.639778 13.016547
0.250063 -12.984231 14.057737
0.14087801 -11.711896 13.610459
0.032219999 -11.319181 14.210365
1.000684 -14.235854 15.650257
1.5683891 -13.371836 15.339794
0.66511899 -11.004748 14.141116
-0.18846001 -13.513614 12.901082
0.46885201 -13.586076 12.495237
0.36287701 -13.457656 13.37498
-0.38743001 -12.053718 13.341865
-0.46266699 -11.179793 13.052517
0.14108799 -11.7556 13.5344
0.031812001 -11.368898 14.226641
-0.188979 -13.552421 12.897559
0.469632 -13.644026 12.508487
0.36302799 -13.48816 13.363656
-0.37455201 -11.811951 13.042723
-0.46753401 -11.281686 13.12797
0.133645 -13.087569 14.983508
1.018876 -13.370878 13.009729
0.79942101 -12.165185 14.319117
0.66712201 -11.095718 14.165812
1.3350151 -11.662157 14.405323
-0.18731201 -13.516151 12.824957
0.47032699 -13.697556 12.517612
0.364939 -13.672824 13.500681
-0.373386 -11.808617 12.999477
-0.46553501 -11.268631 13.07292
1.016035 -13.380808 12.900278
-0.180492 -13.344051 12.551374
0.47030199 -13.745674 12.445215
0.25066999 -13.247563 13.988558
0.142582 -11.622553 13.181074
1.016948 -13.41508 12.893005
1.729972 -13.834563 13.45519
-0.180325 -13.358749 12.526473
0.47074199 -13.785736 12.442126
0.25148901 -13.516588 14.220812
0.142277 -11.701833 13.228064
2.523746 -11.215894 14.583909
1.018213 -13.455206 12.891106
1.733816 -13.889888 13.466419
-0.18020099 -13.374885 12.502896
0.471239 -13.828839 12.441567
0.13789 -12.507109 14.071864
0.031934999 -11.572898 14.075919
1.016248 -13.478884 12.795211
-0.18125901 -13.473677 12.477275
0.47324201 -13.98408 12.461324
-0.46772599 -11.46919 12.976778
0.25229499 -13.806177 14.340446
1.9958659 -11.692745 14.441518
1.012957 -13.442559 12.722686
1.601373 -13.956135 15.462357
-0.18413 -13.594124 12.546758
0.474453 -14.065264 12.492882
-0.467778 -11.490348 12.96033
0.25227299 -13.809793 14.300411
1.981226 -11.639656 14.288922
1.0160379 -13.531432 12.726354
1.608604 -14.075465 15.496026
-0.193138 -13.950931 12.786735
0.47268 -14.002931 12.363019
-0.468885 -11.550135 12.946355
0.25223699 -13.811083 14.214628
1.014538 -13.54361 12.659792
1.600324 -14.038474 15.361552
-0.200712 -14.25839 12.979749
0.471223 -13.958227 12.249316
-0.38536599 -12.324212 13.022584
-0.46748799 -11.566608 12.885235
0.251849 -13.708384 14.026218
0.13996001 -12.3563 13.56925
-0.065857999 -10.870138 13.832615
2.385818 -13.887302 14.511803
2.5449481 -11.519455 14.552626
1.013701 -13.548112 12.625188
1.5986069 -14.044278 15.320665
-0.188952 -13.866671 12.595763
0.471466 -13.987577 12.23652
-0.38199201 -12.274124 12.931949
0.25184 -13.715625 13.990703
0.140201 -12.338752 13.509064
0.018674999 -12.650937 14.973018
2.5467839 -11.572737 14.527226
-0.18585201 -13.799622 12.460153
0.472404 -14.069216 12.229911
-0.37916499 -12.256006 12.83507
0.133788 -13.564006 14.726173
0.015604 -12.907467 15.174262
-0.063794002 -10.876209 13.668284
2.537992 -11.573115 14.437353
1.667293 -14.128845 14.17754
1.17081 -11.356588 14.266731
-0.18358999 -13.760558 12.350112
0.47237501 -14.1003 12.180738
0.011193 -13.257873 15.478988
-0.063729003 -10.917967 13.634134
1.655808 -14.058956 14.023571
1.174821 -11.447085 14.288199
-0.183954 -13.814819 12.321268
0.47197199 -14.109657 12.113483
-0.389575 -12.557392 12.981526
0.011183 -13.284259 15.461247
2.2934711 -13.441053 13.76196
0.91109401 -13.082188 13.43857
1.66538 -14.173687 14.091614
0.55544698 -10.925934 13.928416
1.437416 -13.220099 15.250112
-0.18378399 -13.829046 12.295747
0.47301599 -14.182042 12.136016
-0.38118801 -12.400329 12.785413
2.371624 -13.991082 14.221245
0.90881902 -13.079168 13.354047
1.664283 -14.205232 14.036191
0.68997401 -12.150993 14.406899
0.55596602 -10.983603 13.912895
1.1862971 -11.648927 14.398985
-0.186564 -13.968354 12.339458
0.47410399 -14.273048 12.13605
2.378684 -14.079953 14.221863
0.90573603 -13.06006 13.254131
1.586814 -14.174157 14.946277
0.68803698 -12.143736 14.310038
1.187966 -11.712146 14.385417
-0.185259 -13.963234 12.25937
0.47464699 -14.333202 12.110207
0.36038101 -13.664279 12.49832
2.362843 -13.997923 14.098381
0.90607297 -13.086006 13.239304
0.68852901 -12.177499 14.304582
1.1737061 -11.562451 14.161842
-0.184534 -13.957487 12.216863
0.47563601 -14.402827 12.129439
0.36037099 -13.678841 12.472965
-0.50692999 -12.520481 13.376748
0.137467 -13.175765 13.882845
0.67634302 -11.907707 13.911205
1.164265 -11.491277 13.989695
-0.18743899 -14.101818 12.263231
0.47689801 -14.503487 12.135901
0.36084801 -13.752839 12.461883
-0.50371498 -12.505772 13.280082
0.13813201 -13.106257 13.727274
2.401737 -14.33852 14.256277
0.918262 -13.394992 13.378137
1.627782 -13.989576 13.53714
1.580688 -14.222409 14.768135
1.164869 -11.540479 13.961236
-0.186773 -14.119192 12.202288
0.36155 -13.844947 12.466135
-0.50875098 -12.636871 13.333932
0.139441 -12.91939 13.453893
0.031463999 -12.143051 13.740913
1.893906 -11.727919 14.535566
0.90846503 -13.228448 13.176788
1.611095 -13.844177 13.35994
1.5878659 -14.319384 14.821084
1.161162 -11.516557 13.889939
-0.18933401 -14.231516 12.258241
0.366532 -14.312916 12.836419
-0.50533098 -12.59723 13.252661
0.141581 -12.543485 13.03255
0.90337598 -13.188992 13.019222
1.475953 -13.942417 15.431569
0.47917199 -14.720351 12.08357
0.363316 -14.064446 12.503473
0.13431901 -14.001507 14.375166
0.031268999 -12.249947 13.689631
0.90310901 -13.20307 12.993082
1.480038 -14.010973 15.45796
0.36299199 -14.050177 12.452745
0.030792 -12.306199 13.708632
2.285388 -13.695187 13.388166
2.302963 -14.112384 14.796917
0.90079999 -13.177972 12.929767
1.4740551 -13.967882 15.364574
0.36308399 -14.073705 12.434675
-0.56966299 -13.850275 14.316222
0.14109699 -12.770158 13.061071
0.016069001 -13.409586 14.763994
1.888332 -11.863839 14.339086
0.899948 -13.218118 12.84992
0.58325601 -12.197128 14.66292
1.477497 -14.075394 15.33799
1.1979851 -12.135782 14.261117
0.36275399 -14.08627 12.330821
-0.497857 -12.629646 12.965361
0.014933 -13.514274 14.830551
1.889992 -11.897386 14.334201
0.90490401 -13.332469 12.918118
0.36261299 -14.08828 12.294552
-0.48742801 -12.462564 12.759419
0.015666001 -13.487661 14.756966
0.91288698 -13.505463 13.040583
1.545572 -14.092895 14.15248
0.362306 -14.074938 12.245393
-0.490545 -12.538745 12.796264
0.91120702 -13.529856 12.944402
1.541936 -14.117613 14.047198
1.494151 -14.377637 15.420526
1.257127 -12.976842 14.992539
0.362542 -14.138443 12.185546
-0.50365198 -12.836532 12.972696
2.218401 -14.023221 15.423451
0.93221402 -13.956358 13.298774
1.543591 -14.156296 14.041765
1.448867 -13.890779 14.867005
1.256516 -12.991847 14.963287
0.36268499 -14.166209 12.171118
-0.50149202 -12.817809 12.914837
0.93952101 -14.117835 13.40687
1.545246 -14.194996 14.036244
1.459832 -14.036871 14.973161
0.36274499 -14.186279 12.150235
-0.50382 -12.880385 12.936705
0.91604 -13.718335 12.920295
0.363534 -14.300307 12.131783
-0.51188099 -13.088799 13.020653
0.13898 -13.541436 13.290705
1.048068 -14.797496 12.310087
0.90631002 -13.547245 12.725444
1.580828 -13.908453 12.663103
-0.55852503 -13.961214 13.823339
0.139852 -13.398137 13.113597
1.0590791 -15.028083 12.418812
0.90330601 -13.525192 12.627991
-0.55110502 -13.869331 13.650816
0.140835 -13.26388 12.906488
0.90868503 -13.667775 12.679092
1.498822 -13.861302 13.382974
-0.54394698 -13.780847 13.483269
0.14146 -13.193999 12.762161
0.90887499 -13.690082 12.660379
1.4993989 -13.887555 13.366753
1.456025 -14.194168 14.725803
-0.53399402 -13.61893 13.288234
0.14132699 -13.247007 12.773
0.90579599 -13.665898 12.561629
1.502332 -13.958976 13.351717
1.466444 -14.357669 14.799901
-0.530433 -13.595547 13.185087
0.141608 -13.249355 12.697309
0.907695 -13.740097 12.550597
-0.52673799 -13.568743 13.079598
0.14169 -13.286575 12.654467
0.90870798 -13.796328 12.523278
-0.52632397 -13.602784 13.031535
-0.094462 -13.163668 14.374875
2.1867411 -14.186807 14.80829
0.90670198 -13.774798 12.466166
-0.526838 -13.632917 13.01978
-0.089442 -12.990722 14.103917
0.91019303 -13.880617 12.482054
-0.53030199 -13.738675 13.038122
-0.099518999 -13.4801 14.53284
0.91287601 -13.970026 12.482895
-0.52933502 -13.762236 12.980111
-0.087503999 -12.975308 13.958773
2.102493 -14.054133 15.520406
0.91708601 -14.072335 12.532772
-0.535981 -13.907353 13.073264
0.92103499 -14.187932 12.554985
0.68739498 -13.018525 13.382404
0.59108698 -13.092328 14.325962
-0.52945602 -13.825986 12.91946
2.0906501 -14.059123 15.336232
0.92576998 -14.319023 12.58941
0.68686402 -13.042295 13.324652
0.59236801 -13.177258 14.328506
-0.52266997 -13.739335 12.762148
0.92983198 -14.41901 12.635496
0.68689799 -13.062636 13.304256
0.59192199 -13.182693 14.290459
-0.51838601 -13.678618 12.668423
0.024614999 -13.671508 13.478825
0.931804 -14.513395 12.598457
0.685673 -13.086278 13.20643
0.56483501 -12.305292 13.240353
-0.51934701 -13.757331 12.62265
0.025752001 -13.609544 13.378823
0.93480599 -14.592366 12.625773
0.682028 -13.004749 13.086914
0.56454599 -12.31444 13.209559
-0.51702899 -13.733271 12.562609
0.025769001 -13.631422 13.358911
-0.100013 -13.763591 14.340067
0.93940097 -14.703687 12.679754
0.68159503 -13.011807 13.054042
0.56724501 -12.427397 13.286938
-0.51274502 -13.671674 12.469526
0.027659999 -13.559926 13.17004
0.68094403 -13.049832 12.971987
1.384583 -13.885277 13.356495
-0.52792603 -14.021365 12.662319
0.68196303 -13.097035 12.977872
-0.52851403 -14.052697 12.650914
-0.52729499 -14.049398 12.609215
0.58583701 -13.232768 13.78431
-0.52879697 -14.138695 12.570502
-0.099710003 -13.962637 14.147593
2.07708 -13.892973 13.486594
0.58798301 -13.328309 13.839008
1.39197 -14.092504 13.303705
-0.53307599 -14.241117 12.620134
2.070138 -13.861282 13.415849
0.58737803 -13.326936 13.795437
1.390902 -14.099527 13.269558
-0.51920998 -13.99355 12.368659
0.58555001 -13.320766 13.663405
-0.51537001 -13.978426 12.241893
0.034685001 -13.274348 12.476194
0.58570302 -13.345886 13.646804
-0.53111202 -14.303408 12.47985
0.034626 -13.300768 12.462144
-0.080142997 -13.204796 13.155451
0.80182898 -14.019806 12.404238
0.581348 -13.21068 13.470916
-0.53020602 -14.305635 12.443277
0.034396 -13.385903 12.424891
0.80849802 -14.231582 12.470441
0.58398801 -13.362067 13.497068
-0.093979999 -13.931892 13.692209
0.81800097 -14.476099 12.639658
0.70473701 -14.020437 13.243215
0.58605802 -13.455475 13.547583
-0.091819003 -13.878081 13.557463
0.81606603 -14.465678 12.552957
0.58539402 -13.469602 13.478812
-0.094338 -14.040045 13.628059
2.009784 -14.082351 14.056379
0.82548797 -14.727545 12.695155
-0.091802001 -13.944459 13.496345
0.82533997 -14.742287 12.668266
0.584508 -13.570975 13.290509
0.033227 -13.810652 12.230848
1.224663 -13.938081 13.133638
1.23225 -14.081422 13.184045
1.240737 -14.218307 13.268111
1.238849 -14.250708 13.175779
0.572182 -13.339303 12.599187
1.237819 -14.255937 13.140149
0.57209802 -13.354071 12.574274
-0.079715997 -13.918416 12.478195
0.71894598 -14.989453 12.885237
-0.078867003 -13.898164 12.422328
0.72122902 -15.075278 12.916648
-0.078267999 -13.889866 12.377025
-0.077345997 -13.90834 12.27908
0.58656102 -14.121742 12.757985
-0.077740997 -13.948311 12.275512
-0.077417001 -13.97497 12.222653
-0.078360997 -14.06257 12.22146
-0.077791996 -14.055154 12.177574
-0.078243002 -14.11979 12.156527
-0.080208004 -14.258277 12.196648
-0.080471002 -14.313861 12.167151
-0.081669003 -14.394146 12.195574
1.719162 9.5729322 8.2031202
1.257905 9.2102537 8.3229408
0.33035299 9.4567289 7.955236
0.32968599 9.4021482 7.96068
0.32949999 9.3859406 7.9718809
1.675074 9.1524439 8.1796045
2.6034231 9.4003811 9.17801
1.698848 9.2784424 8.3328886
1.682169 9.1523294 8.2767963
0.74787199 9.1291771 8.1057138
0.75073099 9.1583738 8.1774473
1.177995 9.2202187 8.1336441
0.32697201 9.1726303 8.0649338
0.76379699 9.3690395 8.3743687
1.243322 8.9181395 8.4433403
1.185842 9.2844 8.2097082
0.327075 9.1781263 8.0932617
1.248857 8.9321585 8.5304117
1.180581 9.2024956 8.2157516
-0.092391998 9.0839415 8.0040693
0.32924199 9.3353443 8.2932281
0.75166202 9.1252756 8.2713079
1.251516 8.9436436 8.5657253
1.186797 9.2507486 8.2796221
-0.095757 9.171957 8.0988388
0.32827601 9.2598562 8.2561283
1.1769201 9.1464357 8.2182722
0.73525298 8.8113317 8.1050444
-0.098644003 9.1978197 8.2161436
0.73558998 8.8072824 8.1254387
1.181941 9.1509304 8.319334
-0.102373 9.2956867 8.3207502
1.6298749 9.3262053 8.3234653
0.73903501 8.8550329 8.1897316
1.6900671 8.9838238 8.6037016
1.628322 9.282423 8.3612318
0.75656098 9.1171856 8.4860268
0.83994102 9.1774368 8.8030396
2.5300169 8.7727547 9.2876272
0.73896599 8.774972 8.314189
-0.101684 9.131588 8.4057178
-0.098595001 9.0233212 8.3387451
0.32741201 9.1560173 8.5399036
-0.098820001 9.0143089 8.3556147
2.553422 8.7979774 9.4501429
2.3037751 9.5785875 8.308672
0.82636303 8.8834791 8.7694387
1.171101 8.8964911 8.446661
1.1201169 9.3695908 8.2218027
1.162222 8.8032322 8.3899021
1.117276 9.3298759 8.2139854
1.108572 9.2197285 8.1726303
2.491554 9.3798532 9.254796
0.82532603 8.8137903 8.8339825
1.112093 9.2346191 8.2335062
0.82561302 8.8068008 8.8533916
1.113777 9.241188 8.2633677
1.111861 9.2004461 8.2784405
0.18884701 9.2277756 7.7633948
0.75031799 8.8067417 8.715251
0.187876 9.6172628 8.110096
0.75283098 8.8368797 8.7682734
1.528597 9.1456318 8.1395559
0.187318 9.6736393 8.2268076
1.554944 9.3060026 8.3204641
0.18798301 9.149251 7.8651152
1.538287 9.1688833 8.255703
0.18772601 9.1281834 7.8951559
0.18756901 9.1356478 7.9244952
2.632231 8.8235416 10.050306
2.4875209 9.1668329 9.4667349
1.54168 9.1589642 8.3209229
0.18728501 9.1331615 7.969584
0.18656699 9.2716856 8.1518688
2.6355169 8.7644091 10.135741
2.321629 9.3687382 8.7654562
0.185895 9.3791933 8.3116684
0.18587901 9.3129091 8.2823019
1.5410089 9.8399296 8.5261641
1.897341 9.1332226 8.2807074
0.185432 9.2340698 8.3155432
1.4711699 9.2794199 8.1763201
0.185278 9.2359219 8.3416328
0.120538 9.2176085 7.6751308
0.18506099 9.2669516 8.3920221
2.317271 9.2145653 8.9152336
0.115537 9.6848736 8.1047678
2.0450661 9.218154 8.9960117
0.115423 9.6716099 8.118865
1.46403 9.1725807 8.2103806
