# .PCD v0.7 - Point Cloud Data file format
VERSION 0.7
FIELDS x y z
SIZE 4 4 4
TYPE F F F
COUNT 1 1 1
WIDTH 1599
HEIGHT 1
VIEWPOINT 0 0 0 1 0 0 0
POINTS 1599
DATA ascii
1.001279 0.24871799 22.514669
0.88899601 1.028762 23.432119
-0.066469997 -2.911767 20.655996
-0.187387 -2.306848 20.333273
0.18167099 -0.034288999 21.710295
0.033093002 0.711088 23.76433
1.3347811 -2.6711061 20.712786
2.0657151 -2.4798999 20.326254
0.88833803 0.99049199 23.407141
-0.064533003 -2.9222269 20.504564
-0.18699799 -2.3372159 20.31118
0.55249 -2.371191 19.717009
0.181979 -0.13701101 21.628256
0.036919001 0.59037697 23.265821
1.419129 -3.0018511 19.901707
1.3412369 -2.787869 20.816914
2.071502 -2.586458 20.375826
1.105826 -0.75626397 21.632639
0.998689 0.105271 22.429586
-0.047786999 -2.815506 19.203323
-0.179866 -2.386862 19.92948
0.55109 -2.453794 19.612806
0.182054 -0.171528 21.621428
0.037524998 0.55228698 23.192141
2.0701461 -2.6169579 20.355356
-0.046824001 -2.834873 19.127214
-0.18049 -2.4235549 19.960802
0.549923 -2.4754729 19.53702
0.182078 -0.207138 21.66053
0.037659999 0.51509601 23.184393
-0.046930999 -2.867521 19.133991
-0.180814 -2.4582331 19.976202
0.55044502 -2.5106959 19.560246
0.037673999 0.403909 23.216909
1.327013 -2.913362 20.519018
2.0566349 -2.7252769 20.182453
1.109314 -0.93386799 21.700996
-0.048572998 -2.9829209 19.256666
-0.182192 -2.565681 20.043953
0.553608 -2.6302979 19.722692
0.18268 -0.33723399 21.368689
0.036596 0.367376 23.378922
1.333151 -2.963856 20.628321
2.0579159 -2.759692 20.191351
1.1071939 -0.96561497 21.645041
-0.053645 -3.081003 19.647684
-0.18000799 -2.5820251 19.926432
0.55281103 -2.654758 19.668474
0.182891 -0.36731499 21.237612
2.0565591 -2.7897539 20.17063
1.105316 -0.99753499 21.595022
0.869358 0.60589498 22.718439
-0.046953999 -3.024523 19.127748
-0.177412 -2.5949211 19.78713
0.55495697 -2.704376 19.78635
0.183112 -0.46905199 21.221994
2.0639241 -2.8992889 20.236319
0.86658102 0.495709 22.613428
-0.049130999 -3.1482551 19.290857
-0.17744599 -2.69168 19.782919
0.183171 -0.50329697 21.226639
2.0718889 -2.9454899 20.319736
-0.049263999 -3.1816781 19.299082
-0.17908099 -2.736614 19.86709
0.183191 -0.57596499 21.333792
1.1111391 -1.2142251 21.714907
-0.047644999 -3.2223661 19.169849
-0.178417 -2.7959459 19.827671
0.18336201 -0.64274001 21.294733
-0.045015 -3.247731 18.961767
-0.17876901 -2.8632431 19.841324
0.55298197 -2.9362459 19.608046
0.18350901 -0.673361 21.217188
2.060528 -3.087347 20.163317
-0.044387002 -3.269794 18.91083
-0.176626 -2.8778059 19.725573
0.54953903 -2.9348669 19.399485
0.183892 -0.73019898 20.986177
1.323148 -3.326153 20.363153
2.0833261 -3.1942689 20.405956
0.97641701 -0.515347 21.730137
-0.045591999 -3.349544 18.999615
-0.176226 -2.9386649 19.69957
0.54939997 -2.994951 19.375284
1.309064 -3.3447101 20.085873
0.97627503 -0.58465397 21.719236
-0.046472002 -3.4249151 19.062443
-0.19414601 -3.156589 20.640394
0.55284798 -3.089978 19.559828
0.184045 -0.87060899 21.082762
2.093025 -3.3435569 20.489212
0.97434801 -0.65166599 21.656313
-0.044605002 -3.4593561 18.913132
-0.192398 -3.2084451 20.542509
0.55419999 -3.165334 19.62188
0.184321 -0.892977 20.881104
0.97648501 -0.68911999 21.714571
-0.043674 -3.476207 18.838409
-0.188464 -3.2070439 20.331745
0.55037999 -3.1579959 19.391655
0.18464001 -0.948843 20.693348
-0.043565001 -3.5363381 18.824249
-0.172829 -3.132302 19.500391
0.54847002 -3.1998 19.264256
0.97468901 -0.825225 21.647663
-0.042183999 -3.576534 18.712036
-0.17262 -3.193944 19.483477
0.54903901 -3.26668 19.280592
1.434568 -3.942699 19.970558
-0.045947 -3.666913 18.999655
-0.167758 -3.1806259 19.223772
0.54945701 -3.301563 19.296488
0.18485001 -1.121755 20.784168
1.224174 -2.543668 21.104069
-0.045433 -3.721004 18.953573
-0.17494699 -3.3109851 19.596348
0.052251 -0.533602 21.42481
-0.045474 -3.7840281 18.9505
-0.170821 -3.335283 19.372309
0.052374002 -0.56762999 21.415361
0.96818298 -1.021085 21.435957
-0.045357 -3.8132191 18.938074
-0.166411 -3.3241301 19.136341
0.051837001 -0.67524302 21.516684
1.285635 -3.7685511 19.536005
1.220045 -2.7331531 20.98086
0.99201202 -1.169507 22.111322
-0.045256998 -3.904952 18.920181
-0.164074 -3.3945179 19.002863
0.051341999 -0.71331501 21.594921
1.283366 -3.791147 19.48641
0.976946 -1.175238 21.672134
-0.045825001 -3.945662 18.960306
-0.167089 -3.4556739 19.158001
0.053824998 -0.73193902 21.249563
1.284355 -3.8260591 19.49744
1.9080369 -2.9611211 19.850042
0.96947801 -1.194849 21.452322
-0.047152001 -3.9994929 19.058924
-0.162495 -3.440496 18.912365
0.054816 -0.82844901 21.132362
1.419215 -4.2977862 19.613773
1.292475 -3.951277 19.626051
0.96435398 -1.286653 21.291292
-0.047028001 -4.0913692 19.038197
-0.163183 -3.540175 18.937441
0.055707999 -0.85610402 21.012609
1.290836 -3.9761629 19.587961
1.992926 -3.259423 20.842993
0.96455503 -1.321087 21.292637
-0.042204998 -4.0378342 18.662661
-0.16493 -3.5892689 19.025414
0.54321098 -3.654109 18.815338
0.055996999 -0.88805598 20.978695
1.288355 -3.997601 19.534218
1.997079 -3.3012061 20.886374
0.965101 -1.356302 21.30389
-0.041634999 -4.0584159 18.614773
-0.166714 -3.6390409 19.11524
0.54168898 -3.665833 18.718876
0.056559999 -0.98595202 20.920702
1.2831219 -4.0699911 19.413971
1.989356 -3.385262 20.774649
-0.041719001 -4.1518579 18.609346
-0.164049 -3.7039001 18.963001
0.54453701 -3.789057 18.856268
0.057505999 -1.011865 20.79277
1.2897871 -4.1282358 19.529835
0.96846998 -1.500459 21.382303
-0.043274 -4.2107701 18.724813
-0.16408201 -3.735173 18.960482
0.54852402 -3.8674691 19.076618
0.057806 -1.043097 20.75663
1.406273 -4.4650002 19.341949
1.296243 -4.1859899 19.641666
1.9059 -3.273984 19.763866
0.841582 -0.83129501 21.607962
-0.042553 -4.2283478 18.665056
-0.164263 -3.7680781 18.965744
0.54771501 -3.88767 19.021034
0.057721999 -1.145689 20.789722
1.299209 -4.2925701 19.672625
1.900955 -3.358108 19.685745
0.84156001 -0.93480301 21.594143
-0.043421999 -4.3368011 18.719036
-0.16197599 -3.8353541 18.832672
0.057980001 -1.1771131 20.759371
1.295254 -4.307251 19.59127
1.197143 -3.186013 20.393839
0.976188 -1.6913871 21.57996
-0.043434002 -4.3678341 18.71549
-0.162009 -3.8664539 18.829941
0.057663999 -1.214185 20.81077
1.296136 -4.3422952 19.599453
1.998077 -3.6370111 20.831993
0.97707999 -1.728201 21.600561
0.84392297 -1.008544 21.667744
-0.046301998 -4.45296 18.931309
-0.16256399 -3.903475 18.854521
0.057927001 -1.313614 20.793179
1.284902 -4.3873782 19.367113
0.82416201 -1.068984 20.964737
-0.048333 -4.5857048 19.073296
-0.165677 -4.03198 19.00411
0.056733999 -1.360685 20.969969
1.277369 -4.3853521 19.219667
1.931447 -3.6171329 20.009848
0.82554102 -1.105562 21.008322
-0.048976999 -4.6295981 19.117817
-0.17341401 -4.1534419 19.405075
0.054442 -1.455619 21.311407
1.282289 -4.4686098 19.294044
1.906256 -3.622391 19.696068
0.84547698 -1.219671 21.693806
-0.050616 -4.7248631 19.233826
-0.166743 -4.137722 19.045641
0.053759001 -1.533507 21.421143
1.428084 -4.9608159 19.590565
1.913408 -3.7023909 19.767443
0.83192599 -1.255464 21.212061
-0.168374 -4.2194791 19.121008
0.055491 -1.5476609 21.178968
1.429176 -4.9968858 19.599516
1.942848 -3.804415 20.110802
0.835195 -1.297554 21.321129
-0.054364 -4.8949332 19.505569
-0.170268 -4.2736139 19.215071
0.055038001 -1.622952 21.256603
1.423515 -5.034492 19.488153
1.92028 -3.8140049 19.828152
0.83836502 -1.373956 21.42152
-0.054058999 -4.9530129 19.471619
-0.170073 -4.334023 19.194633
0.056286 -1.6764621 21.088875
1.895734 -3.8169329 19.522114
1.867973 -3.2902219 20.894945
0.81615603 -1.381471 20.638624
-0.164417 -4.3262768 18.887918
0.54380703 -4.3720312 18.628826
0.057232998 -1.733115 20.964947
1.06197 -2.9233351 20.220381
1.8578759 -3.3348839 20.751699
0.96076798 -2.1892769 21.050905
0.83169401 -1.491618 21.169086
-0.160583 -4.339685 18.676821
0.54408902 -4.4348512 18.625566
0.058819 -1.745824 20.742603
1.059909 -2.9477589 20.163832
1.860515 -3.3739159 20.779245
0.84665102 -1.5687751 21.684109
-0.159541 -4.3569632 18.616919
0.061058 -1.782317 20.431311
1.050177 -2.974371 19.914492
0.826092 -1.576012 20.958862
-0.159949 -4.4230099 18.627186
0.061069999 -1.849555 20.440449
1.057759 -3.0679131 20.085423
1.860112 -3.5058601 20.74748
0.82478899 -1.638829 20.902945
-0.16236 -4.5153708 18.742113
0.061709002 -1.873709 20.353371
1.0527689 -3.0800519 19.957724
0.82530802 -1.6738091 20.915674
-0.16094799 -4.5274701 18.662642
0.060934 -1.986568 20.479834
1.254559 -4.884201 18.628897
0.83186001 -1.7957211 21.12676
-0.16547599 -4.6795092 18.881559
0.059416 -2.0442989 20.702726
0.84000599 -1.857004 21.403864
-0.167592 -4.7388029 18.985897
0.060040001 -2.0684299 20.617399
0.84855402 -1.9205461 21.694754
-0.17015401 -4.8044658 19.113321
0.056368999 -2.2320571 21.160006
1.275897 -5.1416602 18.973761
0.83979797 -1.992631 21.373577
-0.18024699 -5.0372362 19.620407
0.058688998 -2.2276361 20.830133
1.270668 -5.1451921 18.868904
1.046388 -3.33865 19.741735
0.55717802 -5.0754471 19.215334
0.061090998 -2.2207639 20.488415
1.041393 -3.348331 19.613941
0.060839001 -2.327054 20.537567
1.042434 -3.446877 19.617867
0.82024902 -2.086982 20.666954
0.55377102 -5.1430769 18.980434
0.060702 -2.363493 20.561069
1.055578 -3.537554 19.928072
0.82294703 -2.1305151 20.754425
0.062079001 -2.3722351 20.366276
0.82420999 -2.168611 20.792162
0.064147003 -2.434175 20.079571
1.048529 -3.6317301 19.728542
0.82513601 -2.2718101 20.805824
0.064037003 -2.469584 20.098913
1.043367 -3.6389029 19.596687
0.18986 -2.99313 19.049301
0.063980997 -2.5039871 20.110266
1.044878 -3.677325 19.625637
0.064847998 -2.5867109 19.995546
1.166676 -4.48523 19.413284
1.047949 -3.7861481 19.676912
0.064433999 -2.6283469 20.058187
2.394284 -3.0461769 19.752876
1.060611 -3.8794911 19.973866
0.064341001 -2.6970971 20.078436
2.396713 -3.1133649 19.763674
1.0497169 -3.8890741 19.696297
0.063446999 -2.782934 20.213085
2.3906829 -3.166985 19.695755
1.180979 -4.714438 19.667168
1.048179 -3.9441121 19.64366
0.79807198 -2.475868 19.808901
0.065389 -2.7745099 19.935139
2.387773 -3.193819 19.662724
1.171216 -4.6947098 19.455734
1.040164 -3.9347019 19.443289
0.79502201 -2.4929681 19.697437
0.066004999 -2.8273859 19.852091
2.3842831 -3.2511139 19.618206
1.042943 -4.0110812 19.494211
0.79415601 -2.551558 19.654764
0.065520003 -2.9043889 19.92688
2.37677 -3.301342 19.536236
0.066051997 -2.9586689 19.855345
2.3766589 -3.363817 19.522709
1.17342 -4.892818 19.447792
0.066458002 -2.9822831 19.798735
2.374593 -3.391537 19.497242
1.17047 -4.9077401 19.377666
0.80046099 -2.740268 19.83884
2.3751111 -3.4549229 19.489182
1.166158 -4.945734 19.270229
0.80223399 -2.8126831 19.886246
0.19037101 -3.7093861 19.453665
2.3722501 -3.5123351 19.449787
1.164555 -4.9983149 19.218788
0.79860401 -2.8566761 19.747808
0.190019 -3.838016 19.923355
2.369549 -3.5386469 19.418261
0.79491502 -2.8682621 19.614317
0.190106 -3.9036009 19.917826
0.80508697 -2.986537 19.949457
0.80593699 -3.0865729 19.957134
0.80632597 -3.1840799 19.948551
0.79531199 -3.1823831 19.557043
0.191144 -4.1081982 19.191433
0.927908 -3.9844611 19.700504
0.79995799 -3.3039629 19.693657
-0.409271 -4.821516 19.007425
0.191194 -4.137259 19.176554
0.92398798 -3.9920771 19.582247
0.79217201 -3.2875791 19.420223
-0.40947601 -4.8540969 19.006958
0.191295 -4.1515398 19.097298
0.92479903 -4.0282021 19.596832
0.79343098 -3.3262579 19.455742
0.79784399 -3.4471049 19.583593
0.79633701 -3.4686129 19.524496
0.795578 -3.494776 19.490919
0.796763 -3.5956039 19.507854
0.191912 -4.3558359 18.738073
0.79923201 -3.6430681 19.583979
0.192009 -4.3682981 18.658745
0.80054802 -3.6830399 19.620775
0.19203199 -4.4904418 18.764284
0.80265403 -3.7910981 19.668118
0.191842 -4.5950279 19.051353
0.80316299 -3.8258841 19.677204
0.191991 -4.6350021 18.952412
0.80106801 -3.8737431 19.5896
0.19215 -4.6693211 18.833937
0.79487199 -3.8918011 19.362879
0.192191 -4.6990929 18.824038
0.809228 -4.0257602 19.841143
0.19220801 -4.7816372 18.891232
0.80978602 -4.0929089 19.842932
0.192102 -4.9069791 19.116407
0.81253397 -4.1762729 19.918598
0.19194201 -5.0079002 19.368784
0.81338799 -4.2142792 19.93874
0.192049 -5.061245 19.319056
0.069114 -4.4203668 19.439829
0.80534297 -4.216866 19.64921
0.78591698 -4.130476 18.975676
0.78929901 -4.2171021 19.072552
0.79003501 -4.2531772 19.088667
0.91255897 -4.9583659 18.96397
0.79439598 -4.3483949 19.218002
0.78911197 -4.367094 19.022291
0.78776801 -4.3864689 18.968147
0.79535198 -4.5393791 19.196026
0.79233098 -4.5448442 19.085394
0.79058099 -4.5605779 19.017475
0.79712498 -4.7068448 19.209162
0.79439199 -4.713995 19.108152
0.79420203 -4.7427201 19.092369
0.80554497 -4.9330611 19.443277
0.80795801 -4.9851899 19.514154
0.80551201 -4.9945059 19.422598
0.80401701 -5.0735559 19.343086
0.79445398 -5.0175529 19.014252
0.789518 -5.0027428 18.839903
0.79033202 -5.1000929 18.837505
0.79569399 -5.1800408 19.005953
0.79693103 -5.252121 19.026939
2.2632501 6.197578 5.1076841
2.3347261 5.2562351 4.1775451
2.114635 5.6689668 4.7724891
2.3372049 5.2258139 4.221427
2.109643 5.6130328 4.7993641
2.3437059 5.2046928 4.2743821
2.1084239 5.5680108 4.8366599
2.35308 5.1899052 4.333962
2.3350921 5.0643139 4.3739839
2.2694261 5.273016 4.164752
2.11147 5.898912 4.955173
2.245084 5.1749878 4.146184
2.6116779 5.4520001 3.999872
2.1125851 5.8595729 5.0015178
2.2329991 5.108387 4.1552582
2.126873 5.86023 5.0870628
2.3386791 4.9188781 4.527595
2.2589991 5.0999012 4.2913041
2.6122291 5.3471279 4.119494
2.258621 5.0616102 4.3273301
2.2392831 4.976831 4.3168998
0.67714399 6.1444912 5.5843582
0.91157502 5.540391 5.1120372
0.67055798 6.0517182 5.507452
0.89999503 5.4442811 5.0274901
0.665627 5.9800172 5.451808
0.89494997 5.3975749 4.994885
2.270731 5.0075812 4.4373379
0.65393502 5.8046432 5.3241091
0.96991301 6.5537491 5.8522921
0.331714 6.6041069 5.887145
0.96656799 6.5157061 5.8339348
0.33126599 6.568716 5.8716221
0.96390098 6.483376 5.821106
0.32997 6.4894691 5.812252
2.35903 5.1805201 4.6920629
2.539144 5.0385642 4.1317568
2.0686059 5.4134421 5.1631279
0.34642601 4.9445219 4.6590629
0.32682401 6.2909398 5.671133
0.84808099 4.9715319 4.6839218
0.32440001 6.1547198 5.5526619
1.155499 5.3237581 4.945271
0.011237 6.5370421 5.9119081
0.34356499 4.8200402 4.5696321
0.32262799 6.0405512 5.4741492
2.237623 4.8516588 4.4268579
2.0510719 5.3184361 5.1468339
0.65998602 6.5447102 6.1266189
0.011765 6.5031919 5.9171481
0.34113401 4.7202492 4.4900169
0.31988299 5.878046 5.344852
0.88870001 5.7749691 5.2707658
0.01571 6.3683462 5.800118
0.339977 4.6725588 4.4522271
0.31841201 5.7922311 5.2748342
0.88149703 5.6975341 5.226346
0.0187 6.2564702 5.724894
0.33882001 4.6160612 4.4196472
2.054451 5.283885 5.1960292
1.2069319 5.9801059 5.4252348
0.026010999 6.0070968 5.5071039
1.198612 5.9132071 5.3933282
0.028555 5.9106412 5.4445362
1.187116 5.837647 5.3337941
0.030259 5.8487368 5.3986011
2.5351751 4.9212952 4.2321339
2.102366 5.9813519 5.2801161
0.83462 5.2546959 4.8826852
0.035544001 5.665906 5.2441239
0.82825398 5.1861839 4.8430519
0.03537 5.6564169 5.2696371
0.82167298 5.1248202 4.793963
0.038337 5.5552902 5.180841
2.106075 5.9475398 5.3355212
0.80782902 4.9971581 4.6894112
0.044181 5.356658 5.0052471
0.57928199 5.2569098 5.0738258
0.80196702 4.9337502 4.6529508
0.045705002 5.2945099 4.9729691
0.27921301 6.7131081 6.0007381
0.79419398 4.8636718 4.5927968
0.047706999 5.2246542 4.915019
0.27815899 6.6029701 5.9100451
2.5963221 5.848207 4.1179881
2.103667 5.894237 5.3710709
1.088344 5.159667 4.8461299
0.77834702 4.7137241 4.4759178
0.051881999 5.0732369 4.8016601
0.77192903 4.655086 4.4268131
0.053444002 5.0176268 4.757669
0.275554 6.3110671 5.6925092
0.767887 4.6153722 4.3981862
0.87736797 6.1442289 5.5600781
0.054786999 4.968935 4.7208738
2.1082499 5.862215 5.4287848
0.78514302 4.7273521 4.568018
0.86141801 5.974771 5.4412422
0.057863001 4.8531842 4.6422658
0.27241999 5.9762182 5.4241748
0.059551999 4.7941952 4.5931182
0.27172899 5.9017749 5.3654332
0.76975501 4.5909109 4.4465971
0.060718 4.7514791 4.5615821
0.270818 5.808104 5.2863069
2.14258 5.2634072 4.1940169
1.187212 6.180109 5.5742712
0.77113098 4.5669179 4.4659829
0.065452002 4.630836 4.4748502
0.27122599 5.6489582 5.1742001
1.181759 6.1374388 5.5493159
0.77167797 4.5632572 4.4770999
0.065102004 4.6352048 4.4950018
0.27097601 5.615417 5.1564541
0.77086103 4.5490389 4.4762511
0.066508003 4.5849652 4.4539871
0.270529 5.5654302 5.1212029
0.77114302 4.5273418 4.4976411
0.80451798 5.3729939 4.9857402
0.067005999 4.5501628 4.4605608
0.269292 5.4243588 5.023437
0.77203101 4.5262089 4.511735
0.79663497 5.2965331 4.9207721
0.067084 4.541235 4.4656711
0.26813999 5.3160729 4.9248562
0.226496 6.6414261 5.9214749
0.771725 4.5159092 4.5152941
0.789702 5.2284379 4.8643351
0.066904999 4.540215 4.4797821
0.267281 5.232676 4.852262
0.226533 6.6272631 5.9271412
2.338294 5.7133799 4.7661548
0.77269101 4.4992008 4.542592
0.77667201 5.0914311 4.7657561
0.85875601 6.463191 5.8237319
0.066675 4.5276918 4.5117121
0.26599899 5.0911188 4.7490988
0.773067 4.4940519 4.5521498
0.77147901 5.0388231 4.7247701
0.84211701 6.2931609 5.6720452
0.067094997 4.5082202 4.5046868
0.26548001 5.0369701 4.706562
0.22577401 6.263166 5.6403799
0.77382702 4.4836168 4.5713601
0.76395398 4.9581518 4.6689501
0.066915996 4.500608 4.5269642
0.26502299 4.9763131 4.6727409
0.225633 6.1626339 5.5765419
2.305244 5.1297331 4.8039632
1.556284 5.3680401 5.0820928
0.774921 4.4757509 4.5934892
0.75435603 4.860539 4.59337
0.067028999 4.4838748 4.538496
-0.095183 6.5596519 5.9369488
0.26383299 4.8567572 4.5734038
0.22526599 5.9925919 5.4406552
1.187045 6.560451 5.858067
0.77444398 4.4640808 4.595407
0.54531401 6.5616298 5.8512139
0.75106299 4.8246331 4.569416
0.067148998 4.4735498 4.5419588
0.26334399 4.8059649 4.5331001
0.225098 5.913507 5.3780522
1.1771621 6.4760542 5.8130312
0.77298498 4.4368401 4.5946932
0.54354 6.5065832 5.8355398
0.74384803 4.747673 4.5153842
0.801166 5.834024 5.334024
0.067056 4.4631629 4.5611372
0.262914 4.7489152 4.5011749
0.224939 5.8116632 5.3096089
2.315192 5.112031 4.8671751
1.563814 5.3539782 5.1536942
1.029923 5.0619688 4.7460141
1.153147 6.3009691 5.6757669
0.77527398 4.4377441 4.627461
0.53542501 6.3333378 5.70049
0.78396899 5.6525192 5.1819692
0.066698998 4.4605012 4.5893641
-0.076218002 6.1197252 5.5871391
0.26204601 4.6574869 4.4301028
0.22450501 5.6256099 5.1527371
0.77552199 4.4231768 4.6419559
0.53198802 6.2480669 5.6526179
0.77688497 5.5672541 5.1282301
0.067032002 4.4370952 4.5931969
-0.072563998 6.027019 5.5294318
0.224521 5.5831919 5.1434598
0.77487397 4.4102139 4.64221
0.52834201 6.1698222 5.5921612
0.76960099 5.4896421 5.0643768
0.066982001 4.431839 4.6026988
-0.068228997 5.9286871 5.4465079
0.26234201 4.6492958 4.4669619
0.224159 5.4459009 5.0173192
2.3018601 5.0384641 4.8686919
1.5617 5.301064 5.1826949
0.52021599 5.9985609 5.4548502
0.75576401 5.3419328 4.9432082
0.067307003 4.4085102 4.6062942
-0.061507002 5.7730651 5.3215232
0.262348 4.6287551 4.4744792
0.223832 5.299355 4.89711
0.51661998 5.9117999 5.4025459
0.74852502 5.2566051 4.8865142
0.067213997 4.3978319 4.6253381
-0.058061 5.6859388 5.2664809
0.262658 4.6318569 4.5090971
0.22372299 5.2208538 4.8473678
0.51319498 5.8386741 5.345324
0.067036003 4.396307 4.6394348
-0.055406999 5.6232438 5.2184758
0.26266101 4.6215391 4.5128212
0.223564 5.150918 4.7895241
2.3199301 5.0389152 4.953228
1.566571 5.2752972 5.2423501
0.50465798 5.652245 5.2056088
0.065829001 4.4116302 4.7067051
-0.052459002 5.5390549 5.182416
0.26262599 4.586575 4.5194421
0.22340199 5.037724 4.7172098
-0.047263999 5.4247541 5.0785618
0.26291099 4.5984659 4.5488238
0.223271 4.977942 4.668941
0.49311799 5.4220352 4.9997439
-0.043944001 5.349113 5.0151558
0.26291299 4.5881081 4.552474
0.22314 4.918323 4.6204972
2.324466 5.0068188 5.0016999
2.406034 5.0684352 4.087831
0.17218301 6.6859021 5.973629
0.48615101 5.267395 4.8873038
-0.038531002 5.215981 4.9232111
0.263111 4.5712171 4.5801611
0.222964 4.8053222 4.5449209
0.48264101 5.1946459 4.8267169
-0.035615999 5.149189 4.8678489
0.26306301 4.5569448 4.5791779
0.222866 4.7570548 4.5076818
1.187379 4.730145 4.508338
0.480187 5.1412702 4.7862949
-0.032301001 5.0744419 4.8034849
0.26323301 4.5594821 4.5980091
0.222699 4.6886892 4.4481459
0.174615 6.2394261 5.6192732
0.47419101 5.0064249 4.6905289
0.77427298 6.0963039 5.525938
0.26321301 4.5256138 4.6056838
0.17521299 6.1293311 5.5255609
0.47188601 4.956286 4.6524572
0.492908 6.5990872 5.860795
0.76624298 6.0036979 5.4489861
0.26331499 4.522903 4.618391
0.175825 6.0167532 5.4286542
0.46957999 4.9062781 4.6142402
0.49593899 6.6556029 5.9371572
0.75982702 5.9279852 5.3889818
0.26348501 4.525281 4.637249
2.3876221 5.3310299 4.0280762
1.491714 5.3995352 5.0982571
0.176725 5.8517151 5.3129959
0.463801 4.7772322 4.5209231
0.75041097 5.8026929 5.3129878
0.263616 4.5027761 4.6585641
0.17717201 5.7692618 5.2452679
0.94108403 4.723053 4.4833951
0.46066001 4.712883 4.4659362
0.26360101 4.4910412 4.6604619
0.17776801 5.6602502 5.1670051
0.26372999 4.4788971 4.6782308
2.289463 5.7875962 4.8191671
2.3901889 5.3018122 4.0722952
1.496966 5.3776059 5.161181
0.17839099 5.54497 5.0807581
0.26395199 4.474318 4.705183
0.178637 5.4992442 5.0497241
0.17904501 5.424499 5.004849
1.495922 5.3284922 5.1948051
0.17981 5.283217 4.8878808
0.116762 6.7472801 6.0689259
1.259264 5.3687901 5.023737
0.180176 5.2161751 4.8492908
1.255208 5.3315492 5.017765
0.180537 5.149497 4.7938619
1.2430871 5.2640748 4.9614248
2.365144 5.1703939 4.0943112
1.498656 5.2949228 5.2456951
0.181159 5.0343108 4.70154
0.18145099 4.980432 4.6750531
0.18183801 4.9091339 4.612885
0.67086798 4.8415351 4.583324
2.3611989 5.1251521 4.1230688
0.182394 4.8061061 4.5308928
0.66109699 4.7285519 4.4890752
0.182762 4.7383661 4.4870458
0.656187 4.6639709 4.4478612
0.681301 5.7436299 5.2700119
0.22380801 4.4518919 4.6437302
0.18301199 4.6919599 4.450789
0.67280698 5.6350412 5.1749339
2.3546419 4.756268 5.338264
2.3714559 5.1130581 4.1829028
0.92740703 4.920846 4.6532612
1.237902 5.516017 5.1370168
0.42433301 6.063168 5.537878
0.661915 5.480557 5.065557
0.183405 4.6176338 4.4287481
0.92045099 4.8675599 4.6102729
1.2178431 5.4038591 5.0356212
0.42143601 5.97439 5.4651718
0.65566999 5.3990788 4.996933
0.183456 4.607419 4.4324608
0.418641 5.888638 5.3950729
1.848385 5.4312692 5.1029139
2.3775711 5.0906749 4.2335539
0.18356299 4.5859108 4.4541202
0.41366899 5.7241321 5.2785149
0.18357 4.5835638 4.4668069
1.168059 5.105855 4.8009448
0.40952599 5.6032171 5.1699991
0.183613 4.574625 4.4719539
1.16122 5.062654 4.7706218
0.411275 5.6400418 5.2259789
1.835762 5.3369732 5.1044068
2.2719491 5.9551229 4.9622002
0.183662 4.563364 4.5055852
0.183726 4.5504632 4.5061402
0.40064201 5.317966 4.955204
0.183733 4.547977 4.5188198
0.92236102 5.247859 4.869988
0.39809501 5.2411108 4.8901649
1.840408 5.3079362 5.1596189
2.137675 5.5277948 4.637188
0.183855 4.523448 4.5371652
0.90912199 5.1291032 4.7928548
0.39418399 5.1098571 4.7991519
0.183869 4.5195832 4.5483069
0.39184099 5.0391459 4.7392192
0.183919 4.509129 4.5676389
0.39063099 4.989058 4.71731
1.841429 5.2666922 5.2014718
2.282033 4.866086 5.2444258
0.183962 4.498672 4.586843
0.386612 4.866291 4.6154289
0.18397599 4.4946909 4.5979772
0.38556099 4.830111 4.591527
0.184055 4.4789348 4.6111031
0.38273799 4.7391191 4.5228038
2.2822361 4.8215981 5.2798381
2.115597 5.3845768 4.655427
2.301425 4.7618561 4.2101021
0.184111 4.465764 4.6271439
0.37855399 4.6138759 4.4148331
0.184167 4.454082 4.6289701
0.184211 4.4445372 4.649725
2.2866361 4.7863779 5.3270369
2.1133621 5.3378491 4.6880751
2.1150401 5.301774 4.73138
2.1142721 5.2585778 4.7674699
2.113502 5.2151332 4.8031769
0.38173699 4.4502301 4.661777
2.2108791 4.8748899 5.232635
2.215651 4.8412671 5.2817621
2.2173791 4.8000121 5.3215499
2.55322 4.936173 5.1344099
2.5546119 4.8949299 5.173305
2.5554099 4.852149 5.2104111
2.56095 4.8186269 5.2591028
2.5659449 4.7743802 5.3131771
2.66048 6.7355838 10.391692
1.865484 7.235034 10.387189
2.6512201 6.5216942 10.454714
1.856666 7.1120281 10.380641
2.5556619 6.522953 10.589071
1.752331 6.727221 10.350657
2.2047229 7.2292771 10.586786
2.1900251 7.1606221 10.515453
1.7413141 6.5782728 10.329983
1.728129 7.3365178 10.51601
2.203649 7.1905451 10.60164
1.723268 7.2615061 10.512036
2.2119949 7.1665859 10.6793
1.733807 6.4788151 10.314064
2.2180879 7.1698861 10.723682
2.4897549 6.084765 10.402437
1.727754 6.3857121 10.307663
1.722608 6.3136349 10.298079
0.91971397 6.0481901 10.654476
1.278183 6.2001839 10.373635
2.4890079 5.9969058 10.442033
0.90818501 5.9194779 10.489383
2.1269629 6.6526842 10.331028
2.1228659 6.6049652 10.326885
1.310393 5.4891982 10.206879
2.126018 6.5810871 10.36369
1.326172 5.5293989 10.375517
2.127286 6.5681319 10.380311
3.1158149 6.4121342 10.487376
2.122056 6.499507 10.378715
2.1151819 6.4600401 10.348859
2.113735 6.4382639 10.349849
2.1173649 7.0726352 10.619054
1.217782 6.3252101 10.502752
2.1049891 6.782351 10.686036
2.0972309 6.7379441 10.650008
1.252633 5.5462561 10.353535
2.2733779 6.7341518 10.134415
1.13906 6.2195048 10.500516
1.933557 7.1648741 10.345913
2.3186541 5.631947 10.250427
2.274987 6.4006591 10.331836
1.1686651 5.4746308 10.226048
2.3594739 4.7336402 10.213118
2.30758 5.5186229 10.231413
2.2537949 6.2504239 10.261964
1.180885 5.488934 10.385063
1.527745 6.7197728 10.396357
1.182387 5.4796991 10.409318
1.521181 6.6704922 10.3515
2.819206 6.6556301 10.01049
2.345293 4.619329 10.17265
2.2951641 5.4025178 10.204165
2.2477829 6.1473489 10.273456
1.519312 6.6096501 10.36408
1.517096 6.5817418 10.354974
1.513844 6.5488958 10.337197
1.510937 6.4833179 10.340488
1.508305 6.4536252 10.327641
1.508575 6.4377432 10.338942
1.895811 6.6740751 10.304886
2.395391 3.790251 10.143753
1.503032 6.3428411 10.32847
2.819032 6.3885942 10.160874
2.8181379 6.3024368 10.20292
2.395885 3.6239469 10.19662
2.2505331 4.9409971 10.118008
2.2098379 5.6807032 10.240921
1.4915839 6.1354342 10.31083
2.8188601 6.2197762 10.25112
2.299768 4.0937419 10.092566
2.244452 4.8433452 10.119377
2.196523 5.558979 10.206518
1.493751 6.0075688 10.396943
0.75181103 5.1054101 10.590341
2.8187721 6.1348572 10.295228
2.290498 3.993283 10.071622
2.239038 4.7474799 10.123498
2.1882701 5.4519882 10.199254
0.74777102 5.0164709 10.526417
2.8158519 6.0431638 10.326555
2.3502619 3.305464 10.034772
2.2784009 3.8882251 10.034868
2.2296021 4.6428399 10.104874
1.417801 6.2439308 10.257755
2.813334 5.95224 10.358837
2.345305 3.2159209 10.031201
1.8852839 5.460115 10.226464
0.95929903 6.0677919 10.497562
1.473662 5.678936 10.339084
0.740403 4.7595301 10.440953
1.030256 5.467979 10.294479
0.96032399 6.0581279 10.520641
0.74225497 4.7575412 10.484876
0.60192502 5.6237912 10.225616
1.043173 5.532052 10.471721
2.8137169 5.8503361 10.411305
2.353009 3.127388 10.09587
0.739191 4.6793242 10.438859
1.472306 5.5873232 10.366372
0.73861599 4.6570978 10.432651
0.73803997 4.634902 10.4264
2.8107901 5.75808 10.440205
0.736862 4.5728011 10.418658
0.73628497 4.5507088 10.412242
0.735322 4.5079851 10.403118
2.8143361 5.679502 10.496459
2.3101699 3.5921619 10.309769
2.1432071 4.8975501 10.133264
0.734258 4.4647169 10.391856
2.8126199 5.589345 10.529192
2.1924751 4.1320462 10.058625
2.1339779 4.791163 10.114263
1.8192 5.4477019 10.28288
2.813736 5.504837 10.573589
2.186033 4.036448 10.050885
2.1279161 4.692996 10.112454
0.94070798 5.4902291 10.413639
1.569893 3.585752 10.053701
0.59110701 5.0486741 10.084005
1.021933 4.9695358 10.363006
0.94313103 5.4724908 10.464048
0.596699 5.1007872 10.244621
0.93932402 5.4279518 10.41439
2.808778 5.4076462 10.590652
2.2455699 3.238863 10.032994
2.176235 3.934761 10.023653
2.1196301 4.589879 10.096965
2.8090811 5.3209882 10.630065
2.2341499 3.139396 9.9927692
2.1707909 3.8419161 10.019757
2.113878 4.4931622 10.095162
1.166585 3.2710559 10.082862
2.8037131 5.2229228 10.643723
2.297807 2.483783 9.9385433
2.2333231 3.055989 10.008685
2.1613209 3.7419691 9.9925709
2.1062191 4.3923998 10.081464
1.164049 3.179965 10.074809
2.8020561 5.1144562 10.680284
2.2951009 2.3829091 9.9428959
2.2329011 2.9565189 10.030037
2.1542499 3.6304641 9.9828663
1.554997 3.2200971 10.026181
2.7970891 5.0171909 10.693932
2.293087 2.2992201 9.94699
1.552259 3.148051 10.021101
1.807156 4.3672528 10.07068
1.805038 4.328578 10.068526
2.7998149 4.9341998 10.741131
2.298497 2.2226601 9.9890671
2.2163961 2.7699029 9.9778786
1.802631 4.289331 10.06427
1.799448 4.231544 10.060511
2.795248 4.8375611 10.755015
2.2035429 2.6716559 9.9256411
2.145596 3.3689151 10.004362
1.79704 4.1924529 10.0559
1.795478 4.1553922 10.056837
1.793855 4.134881 10.051619
2.7939191 4.7467351 10.782641
2.199523 2.585139 9.9205208
2.1455021 3.286386 10.025873
1.7925611 4.0986328 10.054105
1.790998 4.0616651 10.054714
1.789932 4.0425692 10.05305
2.7934 4.6571541 10.813187
2.1965611 2.5000851 9.9204569
2.141716 3.1979451 10.025822
1.78529 3.998512 10.0328
1.785678 3.9662509 10.046157
1.782379 3.9420471 10.029348
2.7892311 4.5611529 10.826517
2.191123 2.4123671 9.9062014
2.1352429 3.1056211 10.009783
1.363384 2.4761879 11.670014
1.101506 3.036077 10.146187
1.363432 2.4572041 11.673322
1.14853 2.5402961 10.025585
2.7883029 4.4706039 10.853744
2.1920459 2.3319271 9.9259586
2.1378291 3.0270281 10.044488
1.486881 3.09865 10.036395
1.363582 2.4001441 11.683182
1.364186 2.3821411 11.69226
1.099965 2.947705 10.145712
1.04527 3.354634 10.20326
2.184175 2.2257841 9.8997946
2.189811 3.0013189 10.364044
1.284865 2.1682589 10.863726
1.356486 2.254307 11.62633
1.352173 2.1901209 11.588001
1.353334 2.1730831 11.602667
1.1501909 2.312283 10.083053
1.354867 2.1566041 11.621246
1.15284 2.301451 10.11545
2.225276 2.102025 10.151042
1.354454 2.0989189 11.623769
0.71765703 2.9165621 10.387207
1.474795 2.7435911 10.009275
0.79371297 2.1730721 10.679038
1.473307 2.691287 10.00693
1.2121 2.235075 10.81108
1.4709311 2.6209781 10.000125
1.750921 3.2973859 9.984539
1.470597 2.5710299 10.006765
0.82512301 2.0719659 11.30125
0.83001202 2.0676789 11.396729
1.467149 2.4661479 9.9961958
0.84015399 2.0401609 11.596417
1.4667259 2.4489951 9.995594
0.84215897 2.026762 11.63659
1.464345 2.3792241 9.9871616
1.463457 2.361352 9.9825182
1.867196 2.2417359 10.099051
1.465129 2.3476629 9.9992924
1.464332 2.2970009 10.000827
1.465772 2.28283 10.015564
1.4674439 2.268981 10.032235
2.0111499 2.6795959 9.9545012
1.477125 2.234153 10.121342
0.58023101 3.116586 10.237014
1.96179 2.159008 10.734816
2.1565609 2.0951581 10.335438
2.0066071 2.591507 9.9435596
1.202994 2.2190461 11.551414
1.025391 2.368067 10.129728
1.432843 2.5365331 10.260188
1.200447 2.1953061 11.522802
1.026185 2.3534241 10.142646
1.43294 2.5028989 10.267068
1.2023309 2.1610341 11.550279
1.0288301 2.326612 10.18224
2.2024939 2.0520129 10.613698
2.0055611 2.5083029 9.9531069
1.209074 2.1355641 11.636686
1.1576329 2.5936749 11.870871
1.1514339 2.5397029 11.795565
2.0019679 2.42188 9.9465179
1.151683 2.501677 11.804299
1.143679 2.4442141 11.705053
1.607216 2.1007991 11.260323
1.999964 2.337616 9.9488926
1.634133 2.0933931 11.462614
1.412455 2.2607901 10.09328
1.094631 2.26738 11.027654
1.418977 2.2382059 10.155965
1.866473 2.130306 10.53972
1.0883909 2.217227 10.951121
1.4258929 2.2327471 10.219492
1.8790931 2.1271651 10.626379
1.723155 2.4739299 9.9451408
1.14881 2.3325291 11.740541
2.003196 2.256079 9.9644556
1.440613 2.2226579 10.354396
1.135774 2.265893 11.575501
1.449133 2.2019341 10.434653
1.131197 2.2181921 11.520502
1.4567159 2.196593 10.504081
2.0270181 2.2006259 10.122808
1.296345 2.905741 10.11295
1.147851 2.176651 11.746782
1.3463171 2.4917171 10.042163
1.301335 2.901165 10.16522
1.142311 2.14625 11.676691
1.300195 2.88168 10.157594
2.0142679 2.0332119 11.56078
1.290851 2.8093309 10.076573
1.667289 2.598567 9.9883966
1.060818 2.5228729 11.515026
1.060867 2.504123 11.5184
1.067279 2.4634521 11.61685
1.340896 2.3165531 10.019759
1.0126801 2.3087981 10.847871
1.342409 2.3027329 10.036489
1.0132819 2.292465 10.858771
2.4395361 2.9775791 10.030039
2.173223 2.0741789 11.055415
1.3475831 2.261992 10.092551
1.060207 2.3323491 11.5319
1.0617861 2.317167 11.556623
1.283097 2.5265679 10.05129
1.8726619 2.164279 11.063386
1.282205 2.491523 10.048395
1.420463 2.2099359 10.797967
1.061905 2.1657479 11.576456
1.419668 2.191005 10.792998
1.886375 2.0881951 11.171214
1.4229161 2.1604819 10.828225
1.93533 2.102335 11.517478
1.925696 2.017432 11.459623
1.281365 2.291019 10.073096
1.28443 2.263494 10.108529
1.28883 2.2549961 10.154531
1.905291 1.737788 11.345842
1.8638721 2.0316181 11.543273
1.871989 2.021347 11.604707
1.396654 2.1224229 11.265601
1.402844 2.113579 11.329294
1.6156811 23.992247 15.94798
1.615147 23.955069 15.977199
2.6436629 23.98234 15.875919
2.6432581 23.842428 16.053362
2.6277239 23.582373 16.090536
2.586122 23.153225 15.841286
2.591809 23.126698 15.984743
2.5938039 23.118771 16.033331
2.595799 23.110744 16.081934
2.5967729 23.037682 16.192745
2.599947 23.04059 16.249557
2.6103649 23.112509 16.357061
2.4473059 23.460846 16.066784
2.4341781 23.269608 16.0396
2.4386909 23.261566 16.143101
2.4399309 23.246887 16.187294
2.43979 23.189816 16.255796
2.438669 23.122963 16.316935
2.454941 23.262117 16.474442
2.46733 23.332348 16.63789
2.4651151 23.253185 16.691017
2.4640369 23.185013 16.752287
2.4659059 23.175589 16.801367
2.4661961 23.121489 16.873068
2.466841 23.070265 16.947111
2.301883 23.823076 16.172127
2.4668291 23.04143 16.981606
2.4679029 22.994659 17.058968
2.4674499 22.931801 17.124084
1.445647 23.28079 16.88703
2.4679091 22.907417 17.16202
2.468698 22.827549 17.270794
3.25366 22.923397 16.067892
2.1299629 23.97896 15.994579
3.246906 22.846098 16.065895
2.1290491 23.940098 16.022594
3.2541609 22.873196 16.139971
2.128799 23.909389 16.05624
3.238893 22.678217 16.159908
1.449809 22.808111 17.549425
3.2508919 22.740074 16.260088
1.448238 22.748728 17.559732
2.2954731 23.042025 16.996401
3.2456119 22.646147 16.299606
2.2953711 22.982491 17.064125
1.4516701 22.655079 17.77449
1.4526891 22.610218 17.854776
1.272844 23.188442 16.961874
1.273947 23.151325 17.046936
1.2743551 23.097975 17.119869
1.27428 23.065699 17.15196
1.2756799 23.034201 17.241667
1.276309 22.984957 17.317928
1.896451 24.030922 15.927852
1.276677 22.961845 17.357191
1.896482 24.003622 15.963933
1.278561 22.907726 17.487288
1.896385 23.918053 16.069717
1.278042 22.865524 17.511566
2.1361821 23.286627 17.001318
1.895133 23.872532 16.093037
1.278262 22.838951 17.548191
1.89668 23.86624 16.143749
1.278446 22.747892 17.64917
1.277778 22.70241 17.67058
2.1337659 23.111349 17.151955
1.279995 22.71756 17.740864
2.134445 23.090084 17.192602
2.9795959 23.789644 16.036503
1.279587 22.613239 17.831112
2.1374531 23.036804 17.323097
1.8875591 23.512287 16.334637
2.97821 23.750771 16.064196
1.281731 22.626366 17.900263
2.969347 23.648352 16.047152
1.280175 22.562078 17.906107
1.283023 22.524817 18.051579
0.91781902 23.389322 16.117826
1.280651 22.443567 18.042988
0.92005497 23.431639 16.202934
1.28013 22.400778 18.066183
0.92005098 23.400684 16.235706
2.1378551 22.832827 17.565577
1.280978 22.321156 18.176523
0.91818899 23.245995 16.289145
2.136605 22.727707 17.655231
1.2812721 22.295023 18.213627
0.92082602 23.300583 16.383978
1.889487 23.222971 16.735287
1.283309 22.271441 18.31241
0.91881597 23.171936 16.4006
2.9215 22.890379 16.21386
1.275739 22.051592 18.243546
0.91840798 23.096567 16.455666
1.89841 23.227949 16.964371
2.918191 22.835415 16.228027
1.277144 22.048084 18.29977
0.92005002 23.118292 16.527102
1.899141 23.208616 17.00635
1.277177 21.983154 18.362783
0.917638 22.976809 16.532999
1.8999439 23.160137 17.083082
2.9654341 23.118193 16.658501
1.277468 21.924141 18.430721
0.917979 22.925142 16.605272
1.277946 21.867857 18.5012
0.91781002 22.855631 16.664225
0.91890401 22.8591 16.72253
0.92019302 22.83704 16.817474
0.92307299 22.863703 16.950281
0.92151898 22.782581 16.944183
0.92400998 22.797558 17.068531
1.905301 22.873535 17.547722
0.92464203 22.752003 17.146505
1.903062 22.782682 17.591137
0.92588902 22.759071 17.208817
0.94055003 22.176142 18.123934
0.941585 22.06996 18.270016
0.94484401 21.750057 18.708597
0.94531101 21.728985 18.7502
0.94531602 21.623629 18.83753
0.94578201 21.602301 18.878992
0.94660699 21.591265 18.929832
0.940211 21.300783 18.847689
0.93919098 21.236662 18.849504
0.94365197 21.329962 18.996075
0.94611299 21.293951 19.146622
0.94652802 21.270548 19.18634
0.94868702 21.296715 19.272469
0.94986802 21.222649 19.388973
0.95095199 21.217678 19.44651
0.95151299 21.160975 19.517633
0.95188302 21.099766 19.584351
0.95168298 21.058275 19.607241
0.950495 20.952188 19.630617
0.64079398 15.713231 24.351797
0.64158899 15.652193 24.427271
0.64200002 15.622634 24.466606
0.64321202 15.531284 24.581125
0.64389002 15.510747 24.635702
0.64427203 15.479703 24.673178
0.64533001 15.381908 24.778631
0.64595002 15.358765 24.829685
0.64657003 15.335498 24.88073
0.647569 15.234422 24.982216
0.64804101 15.205677 25.024546
0.648274 15.168753 25.05304
0.64968997 15.080653 25.178104
0.65019202 15.05245 25.22201
0.65078402 15.027135 25.27109
0.65184402 14.925706 25.374876
0.65243602 14.899987 25.423849
0.65299398 14.826565 25.483503
0.65426803 14.777345 25.586498
0.654652 14.744282 25.623121
0.65538901 14.675923 25.692848
0.65639597 14.61694 25.779837
0.65686399 14.539334 25.833435
-0.26227701 14.92275 28.107677
0.657727 14.520973 25.8979
-0.259931 14.769713 28.028543
0.65861499 14.457225 25.977533
-0.25635901 14.58035 27.875616
0.65932298 14.386462 26.044781
-0.25358501 14.455152 27.737104
0.66003698 14.362741 26.100353
-0.248068 14.168553 27.493498
0.66100901 14.253453 26.196314
0.66160399 14.225571 26.244703
0.66225898 14.199422 26.296616
0.66350198 14.097221 26.407923
0.66397703 14.065142 26.449059
0.66493398 14.047545 26.518642
0.66334301 13.859077 26.461679
-0.23063099 12.870837 27.008848
-0.231012 12.842692 27.061247
-0.23108099 12.766999 27.12417
-0.232132 12.718084 27.247005
-0.232311 12.683601 27.286495
-0.232177 12.601348 27.336199
0.48019299 13.647917 26.142801
0.30499399 14.42729 26.951992
0.30478901 14.332984 26.874523
0.304584 14.238956 26.796827
0.304331 14.007364 26.658779
0.30413401 13.916107 26.58382
0.30391601 13.822421 26.503284
0.303637 13.592033 26.358889
0.303395 13.496676 26.272146
0.30358699 13.395964 26.279327
0.30418599 13.355032 26.408264
0.30439901 13.322509 26.44845
0.116621 15.276658 27.635487
0.30484101 13.255383 26.525213
0.117528 15.090303 27.496616
0.305507 13.221613 26.672085
0.118383 14.917921 27.381748
0.30589899 13.146699 26.73418
0.118988 14.800114 27.262815
0.30616501 13.120279 26.78861
0.120029 14.592443 27.075527
0.30667701 13.064475 26.891987
0.120703 14.450121 27.01178
0.30696401 12.975212 26.924648
0.121211 14.348615 26.920008
0.30718499 12.942342 26.966228
0.122356 14.111094 26.771721
0.30788901 12.844736 27.094494
0.122837 14.014289 26.686192
0.30832201 12.837978 27.194178
0.123306 13.919584 26.603996
0.30860999 12.81277 27.253836
0.124392 13.692363 26.467173
0.309297 12.710812 27.376255
0.124872 13.595991 26.378771
0.30954599 12.680179 27.424866
0.125313 13.506124 26.302687
0.30958101 12.623457 27.414953
0.12582099 13.372155 26.348314
0.31032899 12.527462 27.553185
0.125833 13.351069 26.411921
0.310592 12.497921 27.605274
0.125774 13.341132 26.498932
0.310828 12.465057 27.650002
0.12628099 13.206364 26.543718
0.31157199 12.366531 27.785921
0.126283 13.186349 26.610838
0.311822 12.334793 27.83419
0.126367 13.153309 26.650848
0.31216601 12.313889 27.908195
0.126609 13.059499 26.783443
0.12671401 13.022682 26.816063
0.12690499 12.956328 26.897598
0.12693501 12.910487 27.02433
-0.061145999 14.026493 27.055319
0.127009 12.878175 27.067677
-0.060107999 13.937812 26.985495
0.127276 12.799151 27.1234
-0.05858 13.790419 26.904469
0.127333 12.747818 27.240824
-0.056667998 13.622581 26.779594
0.12759501 12.668959 27.298008
-0.055199001 13.479241 26.702593
0.127602 12.646495 27.364861
-0.054133002 13.390375 26.627813
0.12772 12.584929 27.461939
-0.052717 13.249 26.551508
0.127941 12.511625 27.533339
-0.052574001 13.172786 26.610048
0.127938 12.490009 27.603777
-0.052863002 13.151791 26.675312
0.12821899 12.384571 27.723276
-0.052905001 13.048599 26.787935
0.128104 12.379597 27.834124
-0.053055 13.020262 26.838646
-0.053204998 12.991797 26.889332
-0.053350002 12.8922 27.012287
-0.053447999 12.860768 27.057407
-0.0537 12.836697 27.118874
-0.053757001 12.731408 27.232206
-0.054060001 12.709254 27.299061
-0.054053001 12.672235 27.333046
-0.054297 12.574385 27.465921
-0.054565001 12.549882 27.529032
-0.054678001 12.517997 27.575642
-0.054832999 12.414446 27.698868
-0.054945 12.38212 27.745338
2.0542459 0.680758 4.3660598
2.064544 0.64502102 4.3966479
2.037488 0.56533301 4.3255448
2.0416751 0.52095002 4.3387089
2.0325291 0.72733802 4.4387479
2.0312929 0.68878198 4.4377842
2.009475 0.64569002 4.3782048
2.2054591 0.37638801 4.0153871
2.2219369 0.34166101 4.0540872
2.020138 0.49581301 4.4116912
2.2118549 0.306512 4.029911
2.00614 1.018775 4.621336
1.670808 0.32233801 3.4217
2.010128 0.94081998 4.6424308
2.190495 0.39384899 4.09165
2.0051839 0.89908803 4.6318011
1.901181 0.050671 3.938529
2.1677091 0.32213199 4.0362401
2.157078 0.286933 4.0099549
2.037679 0.011049 5.26162
1.903846 0.154217 4.077384
1.7920229 0.49768701 3.2172101
1.416283 0.69867402 3.5997789
1.778641 0.461943 3.1851039
1.904665 0.076158002 4.075181
2.217176 0.71927798 4.3855071
1.698338 -0.079054996 4.1318469
2.181864 -0.24683701 4.6865711
2.190798 -0.289929 4.7059269
1.834306 0.017074 3.870605
1.4165339 0.59717101 3.6071961
2.2127171 0.39210901 4.262239
1.464579 0.89947402 3.910912
1.460579 0.86343998 3.899682
2.1485381 0.31851 4.1026592
2.189019 0.56324202 4.3219719
1.416762 0.50190699 3.6117129
1.463737 0.830715 3.9150431
2.141134 0.28302401 4.0836501
1.429703 -0.417586 5.4805651
2.1731889 -0.245634 4.8093042
1.428661 -0.46325099 5.468441
1.7877671 0.40733701 3.304354
2.148663 -0.28764901 4.7340598
1.416998 0.40010199 3.614126
1.836798 0.104885 4.009058
2.1710961 0.404787 4.279644
2.1939449 1.0092959 4.5612712
2.1447411 -0.32695499 4.7175622
2.103564 -0.35307199 4.5959439
1.82312 0.211182 4.1061778
2.161968 0.63547999 4.374825
1.927312 -0.60999298 4.8163171
1.832106 0.13902 4.1298151
2.070545 0.222489 4.020834
2.0618401 0.187893 3.9972589
1.8776309 0.53748602 3.132972
1.417551 0.14562701 3.608613
2.1077089 -0.26224399 4.7681599
1.65961 -0.69249701 5.207911
2.062732 0.11109 3.9955161
1.782907 -0.51475298 4.5131941
2.1026089 -0.309551 4.7470951
1.583443 0.316329 3.5041311
1.657388 -0.74402499 5.1882262
1.857167 -0.2683 4.9863448
2.0923049 -0.34638101 4.7116261
1.59334 0.285018 3.534096
1.654228 -0.78568298 5.165967
2.0653889 0.36098799 4.1285758
2.088484 -0.38529 4.6946421
1.655214 -0.830441 5.1605892
1.317054 -0.112025 5.848845
1.53426 -0.015415 4.0227618
2.084013 -0.423706 4.6754889
1.313629 -0.159907 5.823256
2.101053 -0.23055699 4.9089532
1.306361 -0.205594 5.7736821
2.08408 -0.26736999 4.853138
1.3045321 -0.25338799 5.7572188
2.072788 -0.305217 4.8140512
1.29662 -0.297481 5.7030368
1.580799 -0.029787 5.6958561
2.069072 -0.34516501 4.7973099
1.291266 -0.34235299 5.664258
1.28977 -0.39886001 5.647604
2.0547049 -0.429842 4.7410741
1.710019 0.002073 3.879539
1.284732 -0.442956 5.6100502
1.790028 -0.61575401 4.691896
2.0459321 -0.46678099 4.708364
1.280332 -0.48701099 5.5760989
1.793919 -0.65860999 4.6972489
1.723673 -0.069628999 3.914989
1.751338 0.12686899 4.157383
1.277211 -0.53163701 5.5496531
1.790154 -0.69634098 4.6758289
1.280815 -0.581756 5.5639172
1.3030241 -0.87751102 5.3028779
1.640888 -0.465251 4.3533478
2.041625 -0.28495499 4.8809819
1.300386 -0.91926998 5.2775202
1.640951 -0.50292802 4.3466582
1.899775 -0.94389999 5.0146251
1.301192 -1.009918 5.2604451
1.768199 -0.66777903 4.78651
1.772501 -0.71172303 4.7933679
1.624536 -0.380234 4.4819622
1.640488 -0.42795801 4.535171
1.634409 -0.46341699 4.5058389
2.2293639 -1.130087 5.1260271
2.3001981 -1.227388 5.3197322
1.67195 -0.56568301 4.631114
1.931288 -0.595155 4.644011
1.765793 -0.800439 5.1543112
1.764889 -0.85255998 5.1392822
2.202574 -0.728908 4.4956112
1.767931 -0.89886999 5.1408491
2.2382801 -0.78760397 4.5802732
2.4536769 -0.99519199 5.1240292
2.435636 -1.071155 5.0544562
1.646849 -6.3545032 23.066626
1.652747 -6.4188528 23.151999
0.75798899 -6.8509288 22.233795
0.75765699 -6.8816919 22.207161
0.75644797 -6.9008169 22.144302
1.460335 -6.2587872 22.289248
0.75664902 -7.0084739 22.113646
1.463744 -6.3122268 22.340185
0.75696099 -7.0476222 22.113411
1.458941 -6.3223739 22.241413
0.75708902 -7.0842919 22.105509
1.461062 -6.4400349 22.246061
0.75880998 -7.2126832 22.136566
1.476372 -6.5582271 22.512894
0.75801402 -7.2366948 22.090485
1.500423 -6.7247801 22.938227
0.75550997 -7.2369428 21.974279
1.502546 -6.8460088 22.94088
0.75625902 -7.3516331 21.964718
1.500374 -6.8704648 22.889385
0.75596899 -7.382266 21.939304
0.75252301 -7.7460108 21.63341
1.446327 -7.0576639 21.742138
0.75512499 -7.8534021 21.710926
1.448611 -7.1406789 21.758543
0.75500101 -7.920238 21.677557
1.5789109 -7.4926739 21.457058
1.448329 -7.173645 21.741011
0.75549299 -7.961988 21.683208
1.576746 -7.5485868 21.396503
1.446501 -7.2317719 21.6831
0.75666201 -8.0484276 21.701757
1.581499 -7.6445532 21.446629
1.4440399 -7.2857962 21.613825
1.330115 -6.1035728 22.58189
0.75584298 -8.1044846 21.639776
1.44302 -7.31394 21.582861
1.346228 -6.2326651 22.902489
1.608595 -7.9417892 21.826366
1.441223 -7.4058762 21.512505
1.352342 -6.3778501 22.994085
1.617069 -8.0269909 21.947948
1.439358 -7.4284468 21.466316
1.353039 -6.4185309 22.99687
1.60807 -8.0082235 21.790741
1.437072 -7.4482341 21.41258
1.597986 -8.0858955 21.57539
1.597312 -8.1161909 21.550867
2.3971419 -8.3329334 20.929401
1.599539 -8.2674017 21.530584
2.409591 -8.4160213 21.037403
1.1855659 -5.7965498 22.625107
1.543226 -8.0501652 20.583654
1.5484149 -8.1158171 20.651939
1.579608 -8.4478693 21.088207
1.200498 -6.2176099 22.878298
1.307398 -6.847528 21.826866
1.202093 -6.2644811 22.904455
1.3054169 -6.9039369 21.762348
1.202755 -6.3416948 22.897018
1.298757 -6.9287281 21.602694
1.300477 -6.9746509 21.625315
1.298026 -7.0269332 21.551031
1.297724 -7.0934572 21.520054
1.2970591 -7.2599578 21.443737
1.185318 -6.6528811 22.345608
1.177646 -6.668767 22.142021
1.404772 -8.4284582 20.353331
1.175728 -6.6900878 22.085087
1.294331 -7.4110079 21.324743
1.172379 -6.7358198 21.982624
1.173602 -6.814754 21.986923
1.4386539 -8.8427706 20.87125
1.171927 -6.8372869 21.935585
1.3259749 -7.8467331 21.880863
1.173514 -6.9538159 21.935629
1.057212 -6.2665558 22.896536
1.328161 -7.8976631 21.911022
1.172328 -6.9797192 21.895555
1.05677 -6.2993979 22.872595
1.331283 -7.9556341 21.959816
1.167302 -6.9763799 21.766167
1.164884 -7.0615668 21.672523
1.1637779 -7.0874639 21.634251
1.3046761 -7.9291949 21.35932
1.160302 -7.094851 21.541
2.0800121 -7.9948721 20.535303
1.3123519 -8.0899506 21.47106
1.161965 -7.2107029 21.541548
2.0944171 -8.1584311 20.656563
1.314537 -8.140914 21.500582
1.270309 -7.965415 20.552202
1.161853 -7.4150672 21.461508
1.279326 -8.0691032 20.717333
1.300293 -8.3350277 21.090696
1.162401 -7.556035 21.421553
1.304255 -8.4002819 21.154764
1.166276 -7.6221719 21.497421
1.028319 -6.9474149 21.788996
1.02791 -7.0129271 21.752665
1.027707 -7.0801182 21.72171
1.9481061 -8.062314 20.552319
1.028134 -7.153008 21.707716
1.9594409 -8.1499376 20.676092
1.026915 -7.1762471 21.66177
1.991127 -8.3703203 21.03212
1.022449 -7.203547 21.514988
1.994087 -8.4521017 21.039703
1.023432 -7.2810969 21.51569
1.026054 -7.3399138 21.573454
1.0324889 -7.538444 21.694069
1.02973 -7.5463438 21.606289
1.031514 -7.6666212 21.613852
1.029104 -7.6773419 21.535431
1.030746 -7.7276702 21.565901
1.0312999 -8.0067177 21.469826
1.030425 -8.0318747 21.432331
0.89577198 -8.0294724 21.618099
0.89601398 -8.100976 21.597252
2.5194399 1.5553679 17.221441
2.5022349 1.518586 17.090712
2.5111151 1.467935 17.161528
2.515625 1.414691 17.198656
2.5198071 1.388919 17.231955
2.5287571 1.309373 17.304003
2.534229 1.283771 17.347048
2.5376389 1.257203 17.374208
2.5501981 1.177783 17.473396
1.764051 1.5483871 17.139866
2.5551541 1.151404 17.512287
1.762535 1.519522 17.123814
2.562947 1.125878 17.572933
1.765396 1.494168 17.1574
1.772239 1.416132 17.238169
1.7756259 1.390775 17.277571
