# .PCD v0.7 - Point Cloud Data file format
VERSION 0.7
FIELDS x y z
SIZE 4 4 4
TYPE F F F
COUNT 1 1 1
WIDTH 1546
HEIGHT 1
VIEWPOINT 0 0 0 1 0 0 0
POINTS 1546
DATA ascii
5.6149731 1.822194 -2.2164769
6.0890298 2.706589 0.051599
6.0917602 2.6743419 0.051826
6.312746 2.7208669 0.046581
6.102529 2.590359 0.052328002
6.0907431 2.080718 -0.020428
6.0878658 2.5625939 0.052894998
6.0935531 2.532012 0.053027
6.078948 2.0251551 -0.019445
6.0991201 2.5124581 0.053073999
6.1240458 1.010488 -1.723974
6.0951262 2.467427 0.053537
6.1286402 0.96279299 -1.723419
6.0847669 2.3988321 0.054329999
6.108489 2.6123929 -1.150848
6.1233358 0.91394699 -1.720008
6.0606241 2.752157 -1.52593
6.0914998 2.3690879 0.054414
6.0828199 1.872409 -0.018059
6.1290622 0.86649799 -1.720026
6.1838841 0.74402201 -1.3736
6.0932212 2.305681 0.054876
6.2710962 0.68815398 -2.1324501
6.0923858 2.241632 0.055374
6.0773172 1.749184 -0.016745999
6.0880842 2.2296181 0.055562999
6.312603 0.64226699 -2.145926
6.111311 1.821957 -1.583349
6.0584068 1.669776 -1.9255511
6.1316562 0.78632897 -1.013639
5.923296 1.7434011 -0.835338
6.0822749 1.730413 -0.016748
6.0908728 2.177948 0.055881999
6.2680831 0.73474598 -1.757221
6.357522 0.596003 -2.160749
6.124156 1.77458 -1.5833631
6.0700569 1.622821 -1.9255641
6.1775022 0.74251503 -1.021293
6.08322 2.1439109 0.056297
6.075891 1.658439 -0.015919
6.3316059 0.69086999 -1.774953
6.2367458 0.69914001 -1.0314929
6.0774031 1.618836 -0.015648
6.079442 1.416676 -0.051608
6.083683 2.071223 0.056804001
6.3783522 0.63479 -1.787555
6.33394 0.48603401 -2.1500361
6.294477 0.64484501 -1.041342
5.961165 1.596056 -0.835388
6.0868831 2.041075 0.056933999
6.1511168 0.88824999 -0.125963
6.0772481 1.357511 -0.051043
6.446887 0.58938402 -1.807004
6.3588958 0.59998798 -1.052634
6.5099268 0.45896 -1.4472671
6.1346059 0.85742998 -0.124909
6.2897391 1.3492121 -0.52288198
6.1337008 0.84774399 -0.124804
6.094739 1.981554 0.057156999
6.1446972 0.83932197 -0.12534
6.4863811 0.54137498 -1.817883
6.4092412 0.55336702 -1.061383
6.5742178 0.41057301 -1.462279
6.0779958 1.27958 -0.050492
6.1905479 0.80534399 -0.127601
6.287621 0.72830099 -0.36060899
6.2024679 0.787018 -0.128149
6.3092122 0.71034998 -0.36240101
6.0792441 1.250573 -0.050338998
6.077044 1.4403861 -0.014284
6.1100049 0.78364098 -1.651511
6.2792802 0.65902603 -2.070585
6.0949512 0.92082399 -0.53131402
6.4915519 0.29193801 -2.2039559
6.3394742 0.61460298 -2.090286
6.5403008 0.45912299 -1.0847009
6.1354818 0.73087001 -0.95562202
6.709446 0.310965 -1.494179
5.9139738 1.262935 -1.154596
6.3898172 0.62727702 -0.36902201
6.0768209 1.351988 -0.013674
6.0851269 0.85251701 -0.52921402
6.4382372 0.62057799 -0.373294
6.6964889 0.39666 -1.878525
6.2280402 0.69871902 -1.683143
5.9785519 1.38336 -1.521108
6.5934992 0.410101 -1.09418
6.1927009 0.68801802 -0.96498197
6.9300699 0.26110899 -1.5471359
6.4515581 0.60143602 -0.37436599
6.462832 0.58193398 -0.37527001
6.487339 0.57334602 -0.37740701
6.765142 0.34624901 -1.89855
6.3532581 0.51676297 -2.092953
6.664011 0.36070701 -1.106932
6.2515759 0.64446199 -0.97468901
6.444387 0.532498 -1.3708479
6.174243 0.78545398 -0.538957
6.5090709 0.54417902 -0.37920299
6.133719 0.77165401 -0.53398699
6.533525 0.53536803 -0.38134101
6.1445379 0.763183 -0.535173
6.5579681 0.52648199 -0.38347799
6.8219018 0.29460901 -1.915148
6.3448448 0.61024702 -1.7147779
6.4539108 0.472565 -2.1270881
6.7262731 0.31009001 -1.1182311
6.3042402 0.59959102 -0.98335803
7.0317831 0.15300199 -1.5715491
6.5755029 0.49664801 -0.38491899
6.5839701 0.486837 -0.38563299
6.6043639 0.47751299 -0.38741499
6.8898578 0.231345 -1.9351881
6.5206609 0.41508901 -2.1494279
6.0573468 0.80123502 -1.93677
6.794168 0.247889 -1.130634
6.3669968 0.54455501 -0.99377
6.9827132 0.088145003 -1.559878
6.639585 0.448015 -0.39045799
6.4372859 0.55173898 0.324532
6.6599221 0.43847799 -0.39223999
6.4538531 0.54265201 0.324812
6.6722808 0.428599 -0.39331099
6.480392 0.53403598 0.32527
6.9667902 0.177711 -1.958074
6.6413422 0.36858299 -2.1907821
6.8653722 0.19519401 -1.143754
6.424818 0.49825099 -1.00348
6.634541 0.37896299 -1.413324
6.705286 0.39845601 -0.39617601
6.5040112 0.50487399 0.32564101
6.6338501 0.47679099 -0.15011001
6.7036452 0.38802999 -0.39600101
6.534493 0.49620101 0.32616901
6.654737 0.456902 -0.15119401
6.726202 0.367699 -0.39797401
6.521502 0.47523901 0.32590699
7.0528712 0.122783 -1.983819
6.5132298 0.46044001 -1.760864
6.6615758 0.31759301 -2.197367
6.2326961 0.72138798 -1.993048
6.4921279 0.45153999 -1.01492
6.990283 -0.020476 -1.562277
6.628479 0.439897 -0.63080299
6.68155 0.437271 -0.15259001
6.150826 0.795937 -0.274001
6.5663872 0.456835 0.32668
6.102736 0.78910398 -0.71803099
6.7099042 0.42790601 -0.154091
6.1795902 0.78910601 -0.27616099
6.5748219 0.446989 0.32681799
6.106617 0.77028501 -0.71833998
6.7146721 0.40711901 -0.15432
6.1993718 0.77151799 -0.27756199
6.6176271 0.42797199 0.327546
6.6113019 0.41386199 -1.788604
6.6644058 0.26597601 -2.1980491
7.0079899 -0.075456999 -1.566991
6.7652888 0.38776401 -0.157001
6.0790062 0.83715802 -0.048007999
6.2230749 0.75432801 -0.27926201
6.6343918 0.40801799 0.327822
6.7739229 0.36687899 -0.157444
6.5204358 0.47527799 -0.34038001
6.2308369 0.73545998 -0.27973801
6.7682319 0.35626099 -0.15712699
6.5328488 0.46578699 -0.34137899
6.2297282 0.72566801 -0.279587
7.085722 0.012451 -1.994164
6.6590919 0.36411899 -1.8019331
6.6384869 0.21403 -2.18889
6.1554298 0.74632901 -1.60313
6.3464451 0.63202602 -2.0288811
6.840239 0.227044 -1.460308
6.144227 0.73645699 -0.899445
6.3094292 0.64338601 -1.281119
6.2691989 0.70951098 -0.28252
6.2847729 0.69107598 -0.283613
6.7873592 0.308696 -0.65027303
6.0824151 0.941091 -0.455163
6.2994981 0.68243998 -0.284695
5.9677262 1.435783 -2.1864049
7.0478492 -0.041297998 -1.983336
6.735311 0.31435201 -1.823578
6.646162 0.16257399 -2.1915419
6.3820138 0.584782 -2.0397699
6.6859889 0.30500701 -1.04821
7.036243 -0.185974 -1.575016
6.1996021 0.692927 -0.90799999
5.959918 0.96400702 -0.816993
5.9776721 0.83915299 -1.154768
6.8097539 0.27728999 -0.65302902
6.6415939 0.38852 -0.35022399
6.32371 0.65465403 -0.28640801
6.2741771 0.64888901 -0.741763
6.6618438 0.37894899 -0.351888
6.3344049 0.64558798 -0.287182
6.286756 0.64003098 -0.74353999
6.6641512 0.36871499 -0.35205799
6.3550329 0.63717598 -0.288726
7.070838 -0.097014003 -1.990796
6.6590948 0.110978 -2.196161
6.4361448 0.53801501 -2.057049
6.7498479 0.25416499 -1.059309
7.0351448 -0.240678 -1.575516
6.9863858 0.12038 -1.494193
6.0817218 0.86442202 -0.454133
6.3165188 0.61254901 -0.747697
6.1196542 0.77081603 -0.68235201
6.3690901 0.60832798 -0.28966901
6.3369408 0.60405499 -0.75065702
6.3876772 0.599612 -0.29105899
6.341557 0.59451199 -0.751252
6.4102321 0.59108198 -0.29275799
6.1144381 1.4995559 -1.08795
7.269485 -0.16185001 -2.0508389
6.8865762 0.211282 -1.866872
6.6470571 0.059503 -2.1922519
6.376328 0.485322 -2.0359819
6.1026502 0.78228801 -1.889805
6.8270941 0.20244101 -1.072831
7.0180941 -0.294294 -1.572268
5.9716139 0.87162799 -0.81703198
6.2932749 0.64467299 -0.51305801
6.3396049 0.63810903 -0.51823598
6.0938969 0.80854702 -0.45479599
6.335597 0.64627999 -0.057999998
6.3224812 0.62710702 -0.51621401
6.1146598 0.80125397 -0.456929
6.3423119 0.63690501 -0.058251999
6.1132131 1.439726 -1.085312
6.9481058 0.147075 -1.8846509
6.6513391 -0.0025599999 -2.1942599
6.4187441 0.42732999 -2.049439
6.1554132 0.72992998 -1.905389
6.8920612 0.138712 -1.08429
7.0308061 -0.36110699 -1.576528
7.0623398 -0.000588 -1.512307
6.3584628 0.54707402 -0.93269497
6.5420022 0.446044 -1.330215
6.364213 0.60016602 -0.52073002
6.5027518 0.52740198 0.169568
6.3747911 0.59094203 -0.52185798
6.5132861 0.517838 0.169505
6.4032102 0.582753 -0.525011
6.0839829 1.200776 0.061392002
6.527802 0.50843102 0.16941699
7.0464902 -0.271548 -1.98633
6.995708 0.092794999 -1.89854
6.6402922 -0.053833 -2.1910081
6.2163892 0.687168 -1.924075
6.982173 0.084420003 -1.100237
7.0457449 -0.41734001 -1.581247
7.0626888 -0.055438001 -1.5127881
6.4262252 0.50083297 -0.94355202
6.426888 0.55411202 -0.52750403
6.0788932 1.170769 0.061613001
6.5612741 0.479359 0.16920599
6.4433498 0.54502898 -0.52930701
6.4469128 0.56089503 0.40268999
6.569737 0.46954399 0.169154
6.4524188 0.52535498 -0.530222
6.3236408 0.61388201 -0.70968699
6.460073 0.54144001 0.40303001
6.58462 0.44960001 0.169054
7.0733352 -0.328495 -1.995507
6.6231761 -0.104726 -2.1857879
6.4994569 0.463128 -1.693516
6.6758041 0.33284199 -2.1351359
7.0331249 -0.471248 -1.579406
7.0392361 -0.109445 -1.507858
6.4837809 0.45316699 -0.95276803
6.1052651 0.734703 -0.835729
6.6664739 0.34724799 -1.357149
6.352634 0.59629202 -0.71366799
6.3707652 0.60776103 -0.25117901
6.0825801 1.1230249 0.061689001
6.4931388 0.52305597 0.403972
6.4976702 0.49743199 -0.53518301
6.361187 0.58702201 -0.71480697
6.391335 0.59931999 -0.25260499
6.0820861 1.11332 0.061733998
6.5016642 0.513403 0.40420499
6.4045768 0.580212 -0.25347301
6.520668 0.49395099 0.40472299
7.0748782 -0.383865 -1.997257
7.0127468 -0.016218999 -1.904146
6.6339698 -0.156701 -2.190412
6.5592718 0.41459101 -1.709658
6.1929379 0.72093099 -1.552586
6.739357 0.28179401 -2.1562581
6.9956331 -0.024328001 -1.103068
7.0355549 -0.526627 -1.581315
6.5449152 0.40470999 -0.96264303
6.2275529 0.69777501 -0.85437799
6.735939 0.296487 -1.372353
6.3406949 0.57402998 -1.22688
6.4376678 0.56243199 -0.25575799
6.5515962 0.475012 0.40560299
6.6911998 0.38092899 0.168391
6.4507971 0.54310399 -0.25662699
6.1013908 0.79576802 -0.195953
6.5744781 0.45544499 0.406239
6.7138038 0.360596 0.16824199
6.4732699 0.534437 -0.258196
6.1639419 0.792247 -0.19999801
6.5888929 0.44579801 0.40665001
6.7200842 0.35034499 0.168202
6.0593748 1.414806 -2.1547599
7.0473452 -0.436665 -1.990431
7.009089 -0.070560001 -1.903623
6.6405721 -0.20863099 -2.193723
6.2489781 0.67733198 -1.566646
6.4031272 0.55368102 -1.982008
6.9859619 -0.078341 -1.101715
7.0510659 -0.58356398 -1.586504
7.0572238 -0.21989401 -1.513337
6.6464858 0.42005 -0.070514001
6.75459 0.33020499 0.167989
6.4938712 0.48487899 -0.73304099
6.7830348 0.30959499 0.167803
6.732285 0.294489 -0.80790699
6.1695299 0.74543798 -0.65090197
6.6755228 0.38984501 -0.071698003
6.8012328 0.29936001 0.16769101
6.0291901 1.053445 -2.1837389
7.0069199 -0.124929 -1.9036551
6.6146998 -0.25869799 -2.1858799
6.3375568 0.500283 -1.959635
6.993577 -0.13293301 -1.103477
7.0352139 -0.63709599 -1.584196
7.0713868 -0.27569601 -1.5174299
6.6798558 0.30523801 -0.98469198
6.8736548 0.19178499 -1.4027621
6.7721758 0.27408499 -0.81383097
6.702127 0.36984801 -0.072787002
6.83358 0.278676 0.16748901
6.7744222 0.252994 -0.81414402
6.110661 0.78787398 -0.418901
6.8458638 0.257471 0.1674
6.796289 0.242643 -0.81740099
6.1175551 0.77899897 -0.419507
7.0480719 -0.29223901 -0.42824101
6.8659801 0.247008 0.167275
6.9966412 -0.17891601 -1.901469
6.6054049 -0.30956599 -2.1839421
6.7826581 0.263962 -1.770978
6.030571 0.84944302 -1.808027
7.0066581 -0.18794499 -1.1062779
7.0401621 -0.693129 -1.587043
7.0734329 -0.33094701 -1.5188169
6.7516699 0.25397 -0.996539
6.3899231 0.56268698 -0.87835401
6.8340979 0.21099301 -0.82304299
6.1500478 0.75315702 -0.422544
6.6287308 0.40967 -0.26894099
6.9022298 0.21504501 0.167035
6.85392 0.200413 -0.82600498
6.612649 0.38827899 -0.74956203
6.1549082 0.74400902 -0.42294899
7.07477 -0.33829901 -0.43094099
6.6550021 0.40039101 -0.27079499
6.9242792 0.20436899 0.166898
6.8638349 0.18979099 -0.82748801
7.0938082 -0.35080099 -0.43272701
6.667305 0.39052901 -0.271653
6.9303112 0.193646 0.166857
7.0480399 -0.60247397 -1.99568
6.9936109 -0.23318601 -1.901502
6.6314969 -0.363098 -2.194473
6.8389821 0.211419 -1.786586
6.4344349 0.54263401 -1.614029
6.5583448 0.41058001 -2.0306151
6.9996281 -0.242075 -1.105619
7.033093 -0.74772602 -1.587079
7.0614371 -0.38522601 -1.517046
6.8211031 0.201581 -1.008059
6.446003 0.51616502 -0.88676202
6.6022391 0.386291 -1.280654
6.9053469 0.157501 -0.833722
6.688169 0.36006299 -0.273096
6.9803038 0.161011 0.16653299
6.917171 0.14672001 -0.83550102
6.3288088 0.62124002 -0.67137498
7.0962949 -0.395367 -0.43329
6.9959841 0.137648 -0.337271
6.635077 0.43255001 -0.509996
6.952713 0.135667 -0.84083003
6.3374052 0.61197197 -0.67246699
7.0933981 -0.406178 -0.433117
7.0198369 0.12655701 -0.339127
6.159277 0.75648397 -1.132834
6.1081228 1.038276 -1.07101
6.056704 0.90454501 -2.186636
6.9970751 -0.298897 -1.903767
6.5959659 -0.42226699 -2.1840191
6.9256639 0.146915 -1.8108031
6.655221 0.35228801 -2.061765
6.9992738 -0.307612 -1.1063581
7.0201888 -0.81273502 -1.586192
7.084918 -0.45357001 -1.523862
6.8900561 0.137289 -1.019593
6.5080991 0.458857 -0.89611501
6.6645169 0.32631201 -1.293593
6.6620302 0.40258399 -0.51278698
6.9801168 0.102835 -0.844993
6.3729959 0.58444202 -0.67711103
7.1163502 -0.44160801 -0.43545601
7.0215039 0.093781002 -0.33930299
6.6882062 0.39321199 -0.51556301
6.7437801 0.28829899 -0.76807499
6.3795581 0.57494003 -0.67793
7.0836272 -0.44968599 -0.432612
6.6984701 0.383212 -0.51663202
6.7617559 0.2782 -0.77063501
6.388083 0.56553 -0.67902201
7.0707288 -0.459528 -0.43154901
7.0491109 0.071520999 -0.341472
6.9422412 0.18941601 0.41681001
6.2222171 0.71354902 -1.144812
6.05476 0.85682899 -2.1838341
6.9950089 -0.35330299 -1.904355
6.6211171 -0.47624001 -2.19455
6.5535798 0.437695 -1.644769
6.720973 0.302118 -2.0829489
6.9952269 -0.3619 -1.106392
7.0102482 -0.86687499 -1.58576
7.0564389 -0.506347 -1.518483
6.9624929 0.082555003 -1.031772
6.7339158 0.27588001 -1.308185
6.7331438 0.352981 -0.52027702
6.1049318 0.79464197 -0.381078
7.1132312 -0.49701199 -0.43566999
7.0684562 0.038166001 -0.34303799
6.7373819 0.34268001 -0.52070802
6.1514392 0.789931 -0.38543701
7.0943189 -0.50623 -0.434073
7.098125 0.026472 -0.345357
6.148427 0.78002799 -0.385061
7.1011581 -0.51801699 -0.434791
7.1078401 0.015219 -0.34613299
6.277029 0.66908097 -1.155196
6.0598788 0.80992901 -2.183857
6.9963398 -0.40801501 -1.9060529
6.615746 -0.52754802 -2.1945829
6.6171541 0.38907999 -1.661435
6.108427 0.78310102 -1.472075
7.0025282 -0.41711801 -1.108503
7.0190759 -0.924016 -1.590016
7.060514 -0.56206203 -1.520775
7.0384231 0.026578 -1.044609
6.6380639 0.36188999 -0.91604102
6.1769452 0.75388598 -0.387541
7.1037278 -0.551772 -0.43535
6.7978072 0.30799901 -0.035842001
7.0910368 -0.017436 -0.34492201
7.0615711 -0.310545 0.123056
6.1758561 0.74415803 -0.387355
7.1104889 -0.56362402 -0.436068
6.809988 0.297737 -0.036274001
7.0927091 -0.028477 -0.345081
7.0508142 -0.32080099 0.123171
7.0922761 -0.584023 -0.43466201
6.8203139 0.27669001 -0.036648002
7.0960011 -0.050733 -0.34540799
7.063168 -0.343766 0.122983
6.9914889 -0.46227399 -1.906088
6.6099672 -0.578812 -2.194617
6.6861458 0.33964401 -1.679661
6.8569899 0.19874699 -2.1271861
6.332521 0.62448102 -1.897112
7.011344 -0.47265899 -1.110961
7.023592 -0.98070902 -1.593335
7.0680122 -0.61830503 -1.5239691
7.0034699 -0.02691 -1.03906
6.7024851 0.31189901 -0.92600602
6.8695569 0.17176799 -1.336956
6.4639902 0.529369 -0.45266199
6.3023648 0.607324 -0.62884802
7.113584 -0.60869497 -0.436811
7.0912519 -0.072539002 -0.34510899
7.0814281 -0.36709499 0.122731
6.468503 0.51957202 -0.45306799
6.3050041 0.59772801 -0.62911099
7.0727592 -0.61510098 -0.43325499
7.1008048 -0.083921999 -0.34588599
6.9997139 0.141608 -0.295286
7.0506439 -0.37580201 0.123088
6.4973621 0.50067699 -0.45590299
6.3359571 0.58007997 -0.63303101
7.119669 -0.64305598 -0.437727
7.1138802 -0.106674 -0.34698501
7.0294771 0.119636 -0.29743999
7.1086702 -0.40247399 0.122345
6.9938588 -0.51722902 -1.9083411
6.679451 0.28764501 -1.67761
6.9006209 0.145503 -2.1415279
6.3833728 0.57817 -1.912267
7.0099049 -0.52741998 -1.111689
6.9625492 -1.026002 -1.580719
7.0731149 -0.67448503 -1.526713
6.7665148 0.26090699 -0.93597198
6.616272 0.393291 -0.70932698
6.3530068 0.56151497 -0.63511997
7.0893602 -0.661695 -0.43524501
7.053184 0.097684003 -0.29915801
7.0589619 -0.420573 0.122913
6.3798981 0.54328901 -0.63851899
7.0965552 -0.68503702 -0.436156
7.0648532 0.075560004 -0.30003101
7.0610189 -0.44291499 0.122845
6.5712481 0.45297199 -0.46317899
6.3883748 0.53390098 -0.63956398
7.110992 -0.698035 -0.43758699
7.0926018 0.064266004 -0.30203
7.0440888 -0.45246601 0.123033
6.1683559 0.80443799 -1.077215
6.9957852 -0.57226199 -1.9105951
6.9172158 0.091820002 -2.1471601
6.372951 0.52802598 -1.908057
7.0099878 -0.582407 -1.112764
6.6737242 -1.028232 -1.512328
7.052628 -0.72764599 -1.523592
6.997354 -0.135461 -1.038798
6.8419981 0.20900799 -0.94780201
7.057034 -0.25827 -1.4468319
6.5919518 0.43333599 -0.46520001
7.084486 -0.71694398 -0.43546101
7.1122651 -0.18399601 -0.347184
7.0540099 -0.475335 0.122877
7.1112399 -0.74299097 -0.438153
7.1329751 -0.20744599 -0.34889999
7.0499172 -0.49713901 0.122882
6.6248822 0.40354201 -0.46844199
7.0979309 -0.75239098 -0.43709001
7.0765042 0.116518 -0.045874
7.1104569 -0.21717399 -0.34720799
7.073503 0.0096000005 -0.30078101
7.0607858 -0.50917602 0.122731
6.2590289 0.76500398 -1.093997
6.9839001 -0.62586802 -1.908969
6.2708368 -1.018926 -2.166399
6.896564 0.184944 -1.735908
6.918179 0.038137 -2.147815
6.48592 0.48331499 -1.943186
6.1095748 0.77175403 -1.769614
6.9998412 -0.63632798 -1.112108
7.0162811 -0.77847701 -1.516862
7.0438752 -0.19254801 -1.047042
6.9269462 0.155928 -0.96118701
7.0591869 -0.313445 -1.448168
7.0140882 0.0088379998 -1.368263
6.655684 0.37339401 -0.47148401
7.0973878 -0.786048 -0.437473
7.0681181 0.083586998 -0.045611002
7.1343589 -0.25201401 -0.34923899
7.0554552 -0.54191101 0.12273
6.7637038 0.271384 -0.72926998
7.1116328 -0.79926902 -0.43890399
7.0779452 0.072529003 -0.045972999
7.1296859 -0.262793 -0.34893599
7.0842371 -0.034666002 -0.30166399
7.0622659 -0.55362999 0.122628
6.7895899 0.26112199 -0.732813
7.0489521 -0.80150503 -0.43338701
7.1077399 0.061170001 -0.047049001
7.1329551 -0.274097 -0.34924999
7.0511522 -0.56354302 0.122743
6.5812321 0.43558401 -1.214308
6.2946901 0.71929401 -1.100116
6.881206 -1.030697 -1.965121
6.9754109 -0.67979199 -1.908451
7.027678 0.13095801 -1.771299
6.4076042 0.56159002 -1.5450799
6.4232941 0.43080601 -1.922636
7.0186019 -0.693694 -1.1166461
7.0798841 -0.842969 -1.533596
7.02495 -0.246168 -1.044449
6.9857831 0.101721 -0.97053498
7.055059 -0.368202 -1.448204
6.8116732 0.229526 -0.73582798
7.0146708 -0.82999402 -0.43074101
7.0930948 0.028266 -0.046572998
7.1426492 -0.308236 -0.35020101
7.0535178 -0.597067 0.122645
6.4919028 0.51110798 -0.41591299
6.8414559 0.219032 -0.73991501
7.009129 -0.84025699 -0.43039101
7.0463171 -0.60733497 0.122711
6.855371 0.20844799 -0.74182498
7.0291748 -0.85438299 -0.43235701
7.0569911 -0.61955303 0.12256
6.6479602 0.37583399 -1.227501
6.3718648 0.66640002 -1.114246
6.6190228 -1.047214 -1.889132
6.984097 -0.74703997 -1.913494
6.5490718 -0.840976 -2.1862741
6.9051142 -0.079691999 -2.144783
6.4727502 0.50467801 -1.561205
6.6139798 0.375664 -1.982594
6.2216802 0.67602801 -1.801432
6.6151228 -1.029386 -1.118706
7.006104 -0.75862002 -1.116006
5.979188 -1.05352 -1.349332
7.0872192 -0.91159099 -1.537711
7.020577 -0.31168601 -1.044499
7.0617342 0.035218 -0.98269397
7.068975 -0.435772 -1.4525909
6.9943719 -0.110381 -1.365014
7.0163279 -0.88593 -0.43167099
7.0451779 -0.65155298 0.122631
7.0126681 -0.89647597 -0.431499
7.0537872 -0.66361302 0.122504
7.0129271 -0.90763903 -0.43168399
6.7146621 0.366846 -0.17964201
7.0484729 -0.67405897 0.122546
6.4224472 0.62039101 -1.123414
6.1632581 0.78096902 -2.157814
6.3384199 -1.04482 -1.806836
6.978456 -0.80145401 -1.9140871
7.012176 0.011174 -1.7677391
6.5292211 0.45654401 -1.575307
6.2787118 0.63184702 -1.817925
6.3795662 -1.036454 -1.076158
7.0179839 -0.81565797 -1.119507
7.039896 -0.96043199 -1.528725
7.0203891 -0.36646599 -1.045191
6.9931841 -0.017878 -0.97216898
7.0463901 -0.488866 -1.448724
7.0391488 -0.94551003 -0.434562
6.737401 0.336115 -0.180922
7.0463309 -0.70717603 0.122496
7.011816 -0.95216101 -0.43225101
6.7496061 0.32599199 -0.181613
7.046905 -0.71832699 0.122466
6.998385 -0.97235203 -0.43138099
6.7719722 0.30543101 -0.18289
7.042047 -0.74003899 0.12247
6.4903212 0.57475197 -1.136011
6.1677361 0.73322701 -2.1578391
6.1145792 -1.049716 -1.74169
6.9590712 -0.85389203 -1.910798
5.956111 -1.159788 -2.0669179
6.5358548 -0.94299102 -2.18766
7.049191 -0.044332001 -1.778173
6.6066051 0.408182 -1.5949399
6.7610111 0.27445999 -2.028652
6.1269679 -1.036359 -1.030331
6.9806652 -0.86577898 -1.114352
7.0152969 -1.0124429 -1.5251549
7.019763 -0.42126799 -1.045884
7.020824 0.066705003 -0.764777
6.9848952 -0.99230599 -0.43050301
6.810246 0.285191 -0.185073
7.0410862 -0.76208502 0.122433
7.0325131 0.055578001 -0.76641601
6.9889221 -1.004137 -0.43104401
6.8163819 0.27475801 -0.185421
7.045536 -0.77376801 0.122354
7.0498929 0.033204 -0.768884
6.9655328 -1.02244 -0.42928201
7.0424862 -0.79572898 0.122334
6.530416 0.52652502 -1.143277
6.2840772 0.69500703 -2.199218
6.9411812 -0.906385 -1.908064
7.0143471 -0.097811997 -1.7693681
6.6565218 0.35802001 -1.607538
6.8320169 0.22213399 -2.0510781
6.9274111 -0.91297102 -1.106428
7.0206618 -0.47629401 -1.0469069
7.0049129 -0.12700699 -0.97472203
6.9087691 -1.034431 -0.42448401
7.0532298 -0.81944698 0.122152
7.0361762 -0.839463 0.122301
6.752039 -1.05135 0.083830997
7.040493 -0.85120398 0.122222
6.9309201 0.16779 -1.284621
6.2878652 0.646312 -2.199244
6.0943942 -1.144262 -1.741763
6.9134021 -0.95712698 -1.902558
5.9598088 -1.2581511 -2.0764151
6.366159 0.61087298 -1.473828
6.8892598 0.16878501 -2.069268
6.9516048 -0.97206199 -1.112354
6.453217 -1.021764 -1.3975151
7.0211191 -0.53136998 -1.04793
7.019989 -0.18221401 -0.97755301
6.624362 -1.048645 0.086098999
7.03126 -0.87211698 0.122281
6.9292831 -0.44703001 0.416875
6.8203502 0.25346199 -0.446585
6.5674419 -1.059008 0.087057002
7.0278969 -0.89403301 0.122261
6.9312372 -0.46902001 0.41697299
6.8483162 0.243248 -0.44924301
7.0386901 -0.075856999 -0.767865
6.4919462 -1.042549 -0.38801199
6.4693112 -1.050364 0.088825002
7.0301442 -0.90550798 0.122206
6.942132 -0.480937 0.41732201
7.0108929 0.112874 -1.300997
6.91745 -1.0129679 -1.906481
7.014782 -0.20691501 -1.770999
6.8054948 0.25570399 -1.645805
6.9228621 -1.0226361 -1.108932
6.2100439 -1.027061 -1.342491
7.011332 -0.58537799 -1.0473109
7.0346189 -0.23767801 -0.98038501
6.8743382 0.22229099 -0.45171699
6.3825021 -1.041836 -0.37839901
6.7834139 -0.99964398 0.33130899
6.3653612 -1.050478 0.090659998
7.0286498 -0.92756802 0.122168
6.934032 -0.50180203 0.417133
6.7324371 -1.03236 -0.65785801
6.9202042 0.20112699 -0.45609501
7.0396628 0.080252998 -0.72419
7.0231361 -0.94916302 0.122171
6.9298439 -0.52320302 0.417054
6.926188 0.190446 -0.45666799
7.0450382 -0.96381599 0.121874
6.9267311 -0.53371 0.416989
6.0969362 -1.2442811 -1.74927
6.5956349 -1.0110691 -1.81501
7.005127 -0.62946802 -1.846765
6.8754978 0.20281 -1.663936
6.4843769 0.51834702 -1.502033
6.5893698 0.399106 -1.909817
6.6804619 -1.034626 -1.067418
7.0069938 -0.63999301 -1.047678
7.0330262 -0.29237601 -0.98073202
6.5141449 -1.0337861 -0.63099599
6.9559851 0.158126 -0.459535
7.0724082 -0.16530199 -0.77309901
6.122869 -1.05007 -0.35580999
6.9677582 -0.99483901 -0.386327
7.0099311 -0.99179697 0.12221
6.9252391 -0.56623501 0.41702199
7.0227342 0.025939999 -0.72214198
6.4633651 -1.0390691 -0.147753
7.0218768 -1.004939 0.122033
6.9319901 -0.57785797 0.417252
7.0250692 -0.94784099 -0.64874601
6.3810692 -1.033332 -0.14336
6.9805479 -1.009184 0.122512
6.928791 -0.58835298 0.41718701
7.0382218 0.003214 -1.307045
6.3649659 -1.021055 -1.750157
6.9965649 -0.68354303 -1.846266
6.9412031 0.148858 -1.681062
6.5468402 0.47091201 -1.517108
6.646224 0.349581 -1.926905
6.434433 -1.04216 -1.025208
7.0354791 -0.69890797 -1.0536309
7.025085 -0.34664601 -0.98014802
6.2182841 -1.027073 -0.59442502
7.0157108 -0.97995901 -0.64829999
6.8325791 -1.026983 -0.37572101
7.0609498 0.086612999 0.039579
6.8388472 -1.0182509 0.124159
6.9290218 -0.62114203 0.41727799
7.0040669 -0.98920202 -0.64712101
7.0827718 0.075414002 0.039051
6.9237719 -0.63137698 0.41715401
6.9963279 -0.999062 -0.64641601
7.0745869 0.064563997 0.039236002
6.0321288 -1.111074 0.096248999
6.9264421 -0.64258099 0.41726601
7.038106 -0.062512003 -1.307494
6.8804121 0.26817301 -1.209729
6.1194291 -1.034538 -1.681432
6.9956479 -0.74981898 -1.84847
7.11621 -0.389882 -1.801809
6.9985662 0.083022997 -1.696193
6.6073599 0.41206801 -1.5317121
6.7143211 0.28886899 -1.947536
5.9439278 -1.299475 -1.008357
6.1674261 -1.051813 -0.979545
7.0189729 -0.763412 -1.052371
7.0157781 -0.41183501 -0.97957802
6.5483031 -1.029922 -0.35247001
6.4985352 -1.011495 0.128199
6.9283929 -0.67564499 0.41741601
6.798892 -1.009739 -0.62344497
6.485611 -1.02887 -0.34731799
6.4533572 -1.013643 0.128727
6.932972 -0.68713897 0.41758701
6.8106928 -1.022638 -0.625112
6.4288168 -1.028715 -0.342666
6.3885188 -1.012032 0.129498
6.9315858 -0.69786501 0.41758099
6.9338188 0.215193 -1.220049
6.9937601 -0.80489701 -1.850123
6.6670742 0.362573 -1.546304
6.7951608 0.23767801 -1.972273
7.0112629 -0.81784302 -1.052412
7.0226369 -0.467314 -0.98148102
6.6543789 -1.027434 -0.60687602
6.2825632 -1.022858 0.130711
6.9174209 -0.72883397 0.41725901
6.2138548 -1.019835 0.131532
6.929831 -0.74145299 0.417665
6.5294218 -1.036532 -0.59243399
6.157012 -1.028908 0.13216899
6.92489 -0.76277101 0.417586
7.0547862 -0.172883 -1.311952
7.002851 -0.861763 -1.855
7.0158348 -0.49179 -1.777442
6.997942 -0.025618 -1.696766
6.7399831 0.31245199 -1.5642951
6.8660388 0.185195 -1.994071
7.0011721 -0.871907 -1.052124
7.0152822 -0.52158999 -0.98120898
7.0485148 -1.001755 -1.4647141
6.4162202 -1.036249 -0.57916301
7.247304 -0.16845299 -0.210897
6.9258161 -0.78476697 0.41769099
6.3241901 -1.14358 -0.1028
6.0099659 -1.029356 0.133901
6.922297 -0.795192 0.41762501
6.29846 -1.158753 -0.10177
6.92905 -0.81824499 0.41789901
7.0262752 -0.226007 -1.306807
6.9943538 -0.916058 -1.855042
7.0967031 -0.55497402 -1.800887
6.6675482 -1.004112 -2.1686251
7.0237508 -0.93129098 -1.057423
7.0448279 -0.57973897 -0.98684102
7.0286598 -0.72742599 -1.384172
6.1964989 -1.157355 -0.097010002
6.9278202 -0.839984 0.417945
6.1260142 -1.152221 -0.093675002
6.9281659 -0.85100698 0.417997
6.0788231 -1.161914 -0.091594003
6.9228821 -0.87228799 0.41791701
7.0678892 -0.78386497 0.207838
7.0364542 -0.28148201 -1.309636
6.9683342 -0.96737701 -1.850247
7.0179882 0.076753996 -2.0411999
6.9777632 -0.97941202 -1.051223
7.0149879 -0.63170099 -0.98315299
6.93332 -0.895926 0.41831601
7.0945072 -0.809825 0.207818
7.0121441 -1.051375 -0.347817
6.0305781 -1.357916 0.095036
6.9239488 -0.91656399 0.418118
7.0715189 -0.82915199 0.2078
6.93888 -1.040512 -0.85584903
6.9532962 -1.051827 -0.34334299
7.3291111 -0.235433 0.032699998
6.9300871 -0.92858201 0.41834599
6.8929939 -1.028213 0.16559
7.0639648 -0.83925003 0.20779499
7.0364151 -0.33636999 -1.3104711
6.9533081 -1.020383 -1.848677
6.2502251 -1.02797 -2.0318601
6.9660091 0.155279 -1.6207041
6.9690728 0.023294 -2.0265291
6.0561419 -1.580474 -1.042417
6.9450369 -1.029322 -1.047322
7.0063319 -0.68586498 -0.98288298
7.0275488 -0.984424 -0.60639101
6.8042812 -1.046349 -0.33192199
6.9344139 -0.95135301 0.41856799
6.7593098 -1.025623 0.166394
7.0784988 -0.863702 0.20777699
7.0355592 -1.008376 -0.60776502
6.7396159 -1.056053 -0.32715201
6.9327559 -0.97330302 0.41860601
6.6728878 -1.031208 0.166894
7.0771232 -0.88606101 0.207755
7.0238762 -1.017538 -0.60664499
6.598609 -1.0316499 -0.80555499
6.6436291 -1.048525 -0.31974101
6.010334 -1.195194 0.133331
6.9309149 -0.984029 0.41859901
6.6100359 -1.0300061 0.167272
7.0694852 -0.89612103 0.20774899
5.9802451 -1.2991101 -1.659472
7.0771079 -0.719953 -1.80101
6.9636922 -0.030657001 -2.025389
5.9203591 -1.292176 -0.946868
6.696732 -1.038352 -1.006948
7.0129218 -0.74198002 -0.98509997
6.9711571 -1.041798 -0.60126603
6.466557 -1.037848 -0.786336
6.9134822 -1.0142421 0.41821599
7.0603199 -0.928482 0.20772099
6.8250079 -1.009342 0.415618
7.0526199 -0.93847901 0.207715
6.7542672 -1.0073839 0.41354901
7.0449061 -0.94845402 0.207709
6.0142298 -1.501942 -2.0549359
6.3755312 -1.019585 -1.690204
7.0735312 -0.77534699 -1.802093
6.8224392 -0.88977402 -2.1447389
6.9617038 -0.08467 -2.0254259
6.0575361 -1.68349 -1.048327
6.450655 -1.043936 -0.96689802
6.9936061 -0.79474902 -0.98327702
5.9142542 -1.465297 0.096450001
6.6109681 -1.013191 0.409399
7.0433922 -0.981951 0.207679
6.1600919 -1.037715 -0.74137199
6.189846 -1.05161 -0.28534901
5.7597919 -1.4308521 0.099316001
6.546195 -1.011575 0.407507
7.035615 -0.99187398 0.207674
5.69383 -1.421434 0.10051
6.4696589 -1.00752 0.40526301
7.0396609 -1.003747 0.207665
5.8304639 -0.63932002 -2.1695161
5.9735308 -1.127517 -1.947575
6.9854841 -0.150811 -2.0337141
6.1990852 -1.054677 -0.926202
6.9820118 -0.85965699 -0.98302299
6.2033482 -1.09453 -0.28708199
5.4808588 -1.387609 0.104377
6.3599229 -1.017404 0.40211499
6.980711 -1.027456 0.20764799
5.4304228 -1.381888 0.105281
6.0074449 -1.33248 0.132854
6.2893529 -1.013743 0.40004799
6.8763018 -1.020533 0.20766599
6.8009582 -1.03176 -0.79284799
5.3455148 -1.365759 0.106839
6.2364588 -1.01336 0.39851099
6.7857242 -1.0156929 0.20768
5.976716 -1.048106 -1.582793
7.0499659 -0.89520198 -1.800633
6.9873462 -0.56154901 -2.113965
6.961544 -0.20386399 -2.027281
6.979363 -0.914702 -0.983998
6.641211 -1.035544 -0.77041799
6.7118521 -1.037407 -0.28359899
5.2462201 -1.3628221 0.108562
5.9434872 -1.355783 0.133504
6.1170611 -1.01934 0.395071
6.6637969 -1.026485 0.20768
6.6196132 -1.031407 -0.27704301
5.9294238 -1.361954 0.133644
5.8625879 -1.364211 0.134406
5.974277 -1.095999 -1.584981
7.0392618 -0.94956398 -1.800157
6.6340199 -1.030097 -2.0919671
7.0000968 -0.618002 -2.1200609
6.9677191 -0.258441 -2.030261
6.9723701 -0.969136 -0.98435301
7.0581141 -0.73993802 -0.51897401
7.0432758 -0.83793199 -0.77876699
5.7899961 -1.364367 0.13524801
7.0396829 -0.84853202 -0.77850097
5.7237692 -1.356295 0.136048
7.0536208 -0.77285397 -0.51900297
7.038321 -0.870776 -0.77879602
6.327559 -1.049665 -0.25684401
5.6570802 -1.35742 0.136811
5.973321 -1.144358 -1.587708
7.0300341 -1.004143 -1.8002011
6.3328261 -1.026427 -1.994894
6.980237 -0.670587 -2.115865
6.965827 -0.31260899 -2.030889
6.0554562 -1.717705 -1.348497
6.9201541 -1.0158499 -0.97755897
7.0485692 -0.79439503 -0.51881498
7.0368872 -0.89286202 -0.77908301
6.2041941 -1.045799 -0.248153
7.0373368 -0.91542703 -0.77964997
6.1415658 -1.053417 -0.243892
7.043817 -0.82726598 -0.51884502
7.0355802 -0.92631501 -0.77965701
6.4740362 -1.028556 -0.029292
5.970089 -1.192337 -1.589898
6.8320551 -1.025661 -1.74874
6.106698 -1.03281 -1.92272
6.9769721 -0.72522098 -2.1171179
6.9654102 -0.366923 -2.032105
6.0516319 -1.953213 -1.063493
6.0532088 -1.768695 -1.351701
6.733449 -1.037729 -0.94931799
7.0366259 -0.84846097 -0.51845598
7.0359211 -0.948735 -0.78021699
6.3680172 -1.029309 -0.02558
5.6389532 -1.386059 0.34808701
7.0372362 -0.871005 -0.51888102
7.0244689 -0.96933597 -0.77915001
6.3032789 -1.0374711 -0.023379
5.595438 -1.392835 0.347132
7.0355468 -0.88189298 -0.51888901
7.030437 -0.981543 -0.78024697
6.2424588 -1.035822 -0.021236001
5.5640588 -1.39334 0.34642401
5.3301668 -1.358174 0.140576
6.0069499 -1.815909 -2.0854051
5.9758139 -1.2426471 -1.594776
6.0103002 -1.382619 -1.980392
6.9770432 -0.78040302 -2.1195829
6.9645581 -0.42126301 -2.033323
6.145925 -1.0423141 -0.47135299
7.0478349 -0.906183 -0.52051699
7.0305972 -1.003976 -0.78080702
5.4840312 -1.389141 0.34458601
5.2618728 -1.3561831 0.141371
6.0835061 -1.049701 -0.464966
7.032547 -0.92622101 -0.51932901
7.0033751 -1.021721 -0.77756
5.4348259 -1.393468 0.34349099
5.2147498 -1.3601381 0.141892
6.0581489 -1.054356 -0.46241
7.0464759 -0.93969703 -0.52095002
6.985847 -1.029754 -0.775388
7.0167861 -0.80682999 -0.201765
5.4150338 -1.3968329 0.343063
5.1854439 -1.36023 0.14222901
6.3358998 -1.04036 -1.618237
6.0104718 -1.432629 -1.984911
6.957562 -0.47509199 -2.0327749
6.2052131 -1.042555 -0.86796099
6.8779721 -1.0117511 0.249718
7.0272999 -0.97022003 -0.51956803
7.0752091 -0.84867799 -0.205465
6.787509 -1.006321 0.24919701
7.0215311 -0.98041898 -0.51917303
7.0518198 -0.85645503 -0.204211
6.7285562 -1.006372 0.248858
7.0314322 -0.99332201 -0.52038997
7.0659552 -0.86969799 -0.205136
5.9859529 -1.26561 0.39266801
5.8780189 -2.2192571 -2.157367
5.9785089 -1.34183 -1.602384
5.9850769 -1.021386 -1.524624
7.0221782 -0.751656 -1.719425
6.965354 -0.530384 -2.0369351
6.0506048 -2.1130531 -1.073832
6.5930738 -1.01335 0.24807601
7.0139771 -1.024014 -0.51921099
6.6341438 -1.052853 -0.237648
7.0845251 -0.906259 -0.206543
6.5243511 -1.010875 0.24768101
6.5655599 -1.050161 -0.233206
7.082778 -0.91722202 -0.20655
6.0347991 -1.2260031 0.207563
6.4595809 -1.008939 0.24731
6.5087509 -1.049559 -0.22955
7.0514202 -0.92357898 -0.20483699
7.007144 -0.81626397 -1.717976
6.95435 -0.594899 -2.035816
6.1079159 -1.557833 -1.2891591
6.32232 -1.0132461 0.246518
7.082006 -0.87813801 0.036433998
6.36974 -1.0531501 -0.220681
7.0401311 -0.955513 -0.204523
5.0835629 -1.4125299 0.33566999
6.007678 -1.350386 0.39383399
6.2674322 -1.012537 0.246204
7.070416 -0.887613 0.036665998
7.0718131 -0.97183502 -0.20648099
5.0848389 -1.421546 0.33575699
6.2007942 -1.009312 0.245821
6.14817 -1.517702 -0.29115701
7.0706749 -0.89885497 0.036610998
7.0601101 -0.98116601 -0.205915
5.6822271 -1.3553849 -2.2323191
5.8953252 -1.081887 -2.2255371
5.8957129 -2.34548 -2.181051
6.0581999 -1.6086169 -2.017036
5.9718308 -1.258669 -1.8961639
7.0161452 -0.873294 -1.7225471
6.951674 -0.64926898 -2.0370359
6.0107532 -2.379281 -1.455457
6.0527802 -1.592706 -1.279654
6.0754948 -1.013769 0.24510001
6.4762802 -1.032058 -0.465846
7.0673909 -0.93213898 0.036532
7.0111442 -1.0067919 -0.203421
7.0636268 -0.94276297 0.036571998
7.0407319 -1.0229959 -0.205265
6.0129342 -1.030178 0.244743
6.3416028 -1.036554 -0.45256001
6.2958679 -1.015511 0.01564
7.0757899 -0.96732903 0.036166999
7.0132432 -1.040849 -0.20391101
6.008791 -1.338496 0.207459
6.751018 -1.028401 -1.271564
5.9449372 -1.167672 -1.522676
7.01512 -0.92894202 -1.724604
6.7512922 -1.0276099 -2.0616879
6.9618368 -0.70531398 -2.0423739
6.009841 -2.434396 -1.4606659
6.0273061 -1.636045 -1.2770931
6.2284708 -1.034003 -0.44127601
6.1900921 -1.0144891 0.018735999
7.0503812 -0.98564202 0.036678001
6.009737 -1.358511 0.207443
6.0129299 -1.0592541 0.244758
6.158287 -1.0296839 -0.43422201
6.1274319 -1.0117559 0.020583
7.056396 -0.99786401 0.036479
6.0900941 -1.035512 -0.42758501
7.0604782 -1.021194 0.036263999
5.5671291 -1.355081 0.38127401
5.8707852 -1.17213 -2.22417
5.9702349 -1.3566 -1.9037189
7.0079212 -0.98366201 -1.725153
6.4401541 -1.02145 -1.964236
6.9601698 -0.76005501 -2.044184
5.977788 -1.986241 -0.99353701
6.0541911 -2.149749 -1.382297
6.0498881 -1.694491 -1.28582
6.099803 -1.057182 -0.42901099
7.0329561 -1.038958 0.036821999
5.4796028 -1.348448 0.37873599
5.811636 -1.356078 0.207462
6.0105371 -1.117389 0.24476001
6.9922361 -1.0373321 -0.47427699
6.9817619 -1.052564 0.037948001
6.4945769 -1.044667 -0.17472599
5.7216892 -1.351468 0.20747
6.913795 -1.0347559 -0.46688101
6.9069419 -1.050433 0.039710999
5.667088 -1.346284 0.207481
7.0452209 -0.69145399 -1.655319
6.9732008 -0.81698 -2.0507021
6.0502839 -2.397922 -1.09413
6.7765889 -1.032369 -0.45398599
6.2185569 -1.044036 -0.633394
5.5676279 -1.338035 0.207499
6.6668921 -1.034273 -0.44375601
6.085228 -1.501339 -0.247997
5.5241952 -1.344732 0.20749301
6.105689 -1.051487 -0.61908299
5.8520651 -1.263716 -2.2256989
6.1113482 -2.4991059 -1.875607
6.6080132 -1.020292 -1.62464
6.9611831 -0.87047702 -2.049571
6.0476341 -2.4526761 -1.0978251
6.0508251 -2.257026 -1.390977
6.0174789 -1.787328 -1.285478
6.4515772 -1.0366319 -0.42366701
6.4339709 -1.043631 -0.42215499
5.9675999 -1.062315 -0.60165101
6.345962 -1.0371079 -0.41380799
5.8638382 -1.314935 -2.235142
6.3494072 -1.022393 -1.558785
5.9756269 -1.0759521 -1.8232599
6.9449692 -0.92324698 -2.0472629
6.0256462 -1.842118 -1.291168
5.8258529 -1.363439 -2.228081
7.032268 -0.868204 -1.661055
6.9774842 -0.995489 -2.0635271
5.0734749 -1.348563 0.205525
5.9634862 -1.812186 -1.6390899
7.0274482 -0.92333198 -1.662084
6.8643088 -1.031333 -2.031173
5.073175 -1.3828501 0.20548201
5.061121 -1.387697 0.20548201
5.9217062 -1.3505369 0.242034
5.9525189 -1.298669 -0.42250001
6.055747 -2.341598 -0.150959
5.9530778 -1.287297 0.021272
5.071981 -1.39964 0.20546401
6.0212302 -2.3276 -1.769417
7.0202708 -0.978136 -1.662626
5.9750509 -1.232111 -1.836632
6.501019 -1.0193909 -1.92044
5.064362 -1.423187 0.20543601
5.966013 -1.256657 -0.60962701
5.0794792 -1.454046 0.20539001
6.2792158 -1.0516731 -1.120576
5.8961639 -1.101734 -2.1677129
5.9852262 -1.154435 -1.475774
7.0145679 -1.033227 -1.663656
5.9567022 -1.293611 -0.60966802
5.0666299 -1.467193 0.20537999
5.9447169 -1.300406 -0.60836899
5.9429598 -1.373271 0.020817
5.0563898 -1.4725 0.20537899
5.5593572 -1.355616 0.240109
5.9341841 -1.3174469 -0.60760802
5.8916931 -1.379095 0.022251001
5.0567889 -1.490088 0.20535401
6.0652509 -1.058632 -1.080121
5.773663 -1.5429569 -2.2282779
6.0495372 -2.8285551 -1.9043
6.0106168 -2.4335401 -1.778978
6.6361871 -1.020916 -1.569818
5.9769182 -1.797719 -1.2206939
5.473732 -1.349399 0.239655
5.9562588 -1.34263 -0.61128801
5.900166 -1.401005 0.021808
5.0685081 -1.511335 0.205323
6.172214 -2.557302 -0.651977
5.4208322 -1.352369 0.239374
5.8912368 -1.418283 0.021906
5.0552621 -1.918978 0.33660799
5.063086 -1.527079 0.205303
5.3800049 -1.34942 0.239158
5.9079151 -1.432801 0.021290001
5.0629878 -1.9313689 0.33687401
5.0527792 -1.532297 0.205302
6.0425148 -2.8840981 -1.91009
6.399498 -1.029423 -1.511977
5.976409 -1.0670511 -1.765012
5.3099179 -1.346572 0.23878799
5.889277 -1.44718 0.021697
5.0599298 -1.948486 0.33694801
5.060533 -1.552369 0.205274
5.2762861 -1.354421 0.238612
5.0604949 -1.967326 0.33711001
5.0511999 -1.56678 0.205257
5.2298031 -1.349203 0.23836499
6.0951991 -2.5962069 -0.158801
5.8948512 -1.4784859 0.021238999
5.7454281 -1.63208 -2.228379
5.9795918 -1.300275 -1.483483
5.9755392 -1.115304 -1.7680089
5.97053 -1.899024 -1.2266459
5.1574249 -1.353469 0.237984
6.0556831 -1.588196 -0.44081199
6.0455079 -3.005372 -1.927976
5.9641252 -2.5804689 -1.784708
5.9673991 -2.12872 -1.67119
6.1059918 -1.8274209 -1.6162781
5.97054 -1.16278 -1.769827
5.9629941 -1.948469 -1.228788
6.0575809 -1.629809 -0.44227499
6.0165391 -1.543092 -1.153303
6.0385499 -3.0621951 -1.934341
5.9725962 -1.212001 -1.774004
6.0868979 -1.496163 -0.40284801
6.0576758 -2.855356 -0.40862301
5.9616909 -2.704354 -1.799849
5.9663439 -1.269356 -1.776427
6.0230331 -2.4013059 -1.338985
5.9632421 -2.0643139 -1.237681
6.0582132 -1.7332489 -0.44562799
5.366116 -2.475122 -2.3427229
5.579546 -1.781929 -2.186599
6.0249982 -1.522754 -1.510419
5.9637918 -1.317835 -1.779426
6.0590911 -1.80655 -0.44814199
5.960454 -3.3800981 -1.560011
5.967319 -2.981086 -1.449012
5.9601479 -3.443516 -1.568069
5.9643259 -3.039223 -1.454958
5.9697599 -2.0826261 -0.88204801
6.1519251 -2.54918 -0.322644
6.0580921 -1.900782 -0.45128599
5.931911 -2.8371191 -0.116931
5.9039912 -2.834446 -0.115683
6.017817 -1.810488 -1.170388
5.9641891 -3.0993919 -1.461812
5.937674 -2.464308 -0.96168202
5.89891 -2.87835 -0.116507
6.0565972 -1.963764 -0.45338199
6.1075692 -2.5059161 -0.077016003
5.8972058 -1.651826 -2.2234631
6.190484 -2.782429 -2.208267
6.0053372 -2.675936 -1.3614759
5.897038 -2.92417 -0.117525
6.0203228 -1.915987 -1.1781009
6.1186771 -1.635255 -1.118945
5.9376369 -2.5762169 -0.96971899
6.1581998 -2.5271771 -0.28178599
5.906127 -1.7560591 -2.239136
5.9557228 -3.701431 -1.601248
6.0027351 -2.7905819 -1.37248
5.9708171 -2.9487729 -0.61055601
5.935359 -2.355185 -0.028835
6.1488528 -2.557452 -0.282112
5.9221339 -2.3603909 -0.028480999
5.938262 -2.378247 -0.029294999
6.1194768 -1.750016 -1.1259561
5.96208 -2.702661 -1.735914
5.9604921 -3.356293 -1.491514
5.929637 -2.4074681 -0.029478
5.9291682 -2.4182241 -0.029634999
6.0889091 -1.792488 -1.122955
6.007349 -3.7057869 -2.0267329
5.9544392 -2.7565279 -1.7408251
6.0222259 -1.6223969 -1.457239
6.0952802 -1.847048 -1.127602
5.911706 -1.597083 -2.1593709
5.9188681 -2.4511089 -0.89776403
5.9415669 -2.5346949 -0.031945001
5.9401498 -2.5565319 -0.032264002
5.949955 -3.9832029 -1.639164
6.093575 -1.952268 -1.134221
6.010879 -3.9118509 -2.0624869
6.0151281 -2.1027329 -1.557436
5.990768 -3.967078 -2.0671439
5.867754 -1.784564 -2.165812
6.0090942 -4.0501399 -2.086138
5.9560199 -3.0528281 -1.7804821
6.0168829 -1.878673 -1.476513
5.0812058 -2.3872321 0.41023299
6.1231952 -3.737519 -0.71986699
5.082448 -2.397768 0.410431
6.103683 -3.738281 -0.717875
5.0818901 -2.4074049 0.41056001
5.989295 -4.1066771 -2.0913701
6.0087399 -2.2626801 -1.5717371
5.0730062 -2.4328251 0.41066501
5.9647679 -3.5525341 -0.39104599
5.0954409 -2.4544449 0.411695
5.0930052 -2.4632061 0.41175401
6.0476298 -2.493752 -1.228349
6.093648 -2.17856 -1.150162
6.00668 -4.205658 -2.11325
5.9569349 -3.1875999 -1.799494
6.0081801 -2.3284409 -1.57837
5.9183259 -3.694998 -1.126755
5.9478049 -2.9744191 -1.317628
5.0891452 -2.491504 0.41206601
5.0848789 -2.499331 0.412056
5.0805988 -2.5071509 0.412045
6.092844 -2.23294 -1.15405
5.962069 -2.8496411 -1.690475
6.011003 -2.3849809 -1.584989
6.0222068 -2.049541 -1.492775
5.9184952 -3.7614739 -1.133436
5.945868 -3.9516361 -1.5655169
5.9483018 -3.034354 -1.323962
5.0817742 -2.5382969 0.41256499
5.0243282 -2.5495789 0.20384499
6.1313348 -3.9493711 -0.73587799
6.0835738 -3.7606089 -0.409168
5.0844698 -2.5499079 0.41283199
5.0810089 -2.5685611 0.41301599
5.8360882 -2.3262379 -2.293581
5.9600158 -2.9072831 -1.697322
6.0203609 -2.444885 -1.5936249
5.9163432 -3.827085 -1.13977
6.1229229 -3.9997661 -0.73869503
5.0792298 -2.588021 0.41327199
5.08532 -2.601609 0.41367701
5.0974088 -2.62902 0.41448399
5.9467068 -3.1232569 -2.122504
5.9385571 -4.5728221 -1.724443
6.1641059 -4.0997272 -0.750305
5.9518652 -2.1377239 -2.240788
5.9689331 -2.5336759 -1.591231
6.0174332 -2.208926 -1.506595
5.9351501 -4.6471291 -1.735342
6.06389 -4.0998678 -0.74009597
6.0615301 -4.1268659 -0.74188203
6.0955081 -2.4564569 -1.171904
5.9997621 -4.5728922 -2.1795781
5.9339061 -4.724175 -1.747183
6.0567751 -4.0316701 -0.42056999
6.009326 -4.658 -2.19801
5.934762 -4.8040018 -1.759967
5.9469652 -3.3399479 -1.3569
5.9667511 -3.530503 -0.60350698
6.0508461 -2.5496981 -1.171652
6.0061231 -4.7337742 -2.211854
5.9598989 -3.208251 -1.737312
5.961174 -2.4838541 -1.901616
5.924437 -4.8752542 -1.769457
5.943871 -3.4010639 -1.363239
5.9661031 -3.6084321 -0.60835999
5.9092278 -4.2443538 -0.73559701
6.0511079 -2.61835 -1.177475
6.0087819 -4.8316002 -2.2314529
5.9462309 -3.7059219 -1.874457
5.9555988 -3.2801361 -1.746269
5.956181 -2.5488379 -1.908775
5.9072499 -4.2531161 -1.1833839
5.9241452 -4.972662 -1.785085
5.9010968 -3.4511011 -1.361235
5.8645082 -4.2536578 -0.731879
5.8982921 -4.2942319 -0.73841703
5.8676538 -4.2850971 -0.73466802
6.0051432 -4.9092441 -2.2458739
5.9324942 -4.3334179 -2.0468631
5.9664741 -2.8313179 -1.625373
5.9062819 -4.3250618 -1.191119
5.9178252 -5.0495472 -1.796461
5.8720222 -3.4966879 -1.361306
5.970305 -3.1145561 -0.49614501
5.9374309 -2.9863429 -0.69195801
5.8485498 -4.3287492 -0.73623401
5.9089408 -4.4059682 -0.74831098
6.0006428 -4.9871168 -2.2602971
5.9313831 -4.4062819 -2.0597379
5.9476628 -3.4009149 -1.761544
5.9436922 -3.5734651 -2.1991429
5.9662228 -2.890054 -1.632504
5.9497252 -2.658931 -1.921885
5.9235749 -5.1384182 -1.8120739
5.9331851 -4.6103878 -1.657281
5.8353338 -4.3772521 -0.73880398
5.8901381 -4.43574 -0.74885702
6.2434549 -3.9978681 -0.65968603
5.7980928 -4.3919401 -0.736341
6.2629089 -4.0397859 -0.664262
5.9633532 -3.9494309 -0.897035
5.9452391 -2.528218 -2.2965219
5.9309888 -4.480597 -2.0731699
5.9480739 -3.910382 -1.907568
5.9518461 -3.4670911 -1.772053
5.9423709 -3.637902 -2.2104509
5.9585872 -2.945307 -1.637617
5.9491649 -2.7158279 -1.929621
5.9183002 -5.2184529 -1.824394
5.934093 -4.6883512 -1.669143
5.7974372 -4.4210248 -0.73862898
6.2102389 -4.031991 -0.65884
5.80897 -4.4603248 -0.74292701
6.2310729 -4.0751448 -0.663643
5.8938432 -4.5445361 -0.75800103
5.9207859 -4.5479851 -2.0832651
5.9640169 -3.008074 -1.646768
5.9463568 -2.772043 -1.9367681
6.1456952 -4.05826 -0.65460098
5.9232831 -4.6264181 -2.0983701
5.9409108 -3.7695229 -2.2343161
5.963747 -3.06829 -1.654406
5.949831 -2.8318641 -1.946275
5.9218888 -5.3953772 -1.854688
5.9321551 -3.797924 -1.408006
6.1083679 -4.2360749 -0.388982
6.1368871 -4.1525888 -0.660164
5.9449859 -4.1181951 -1.941228
5.9476328 -2.8892779 -1.9540139
5.9193368 -5.4816709 -1.8688951
5.935822 -3.868041 -1.41728
5.9327412 -3.3003349 -0.71251702
5.9323039 -3.312516 -0.71331698
6.1049151 -4.216455 -0.66162097
5.933599 -3.899878 -2.256938
5.949954 -2.9495299 -1.963524
5.9371352 -3.937345 -1.426138
6.2193542 -4.0577259 -0.61572802
6.1470528 -4.0222878 -0.60712802
5.9423838 -4.275033 -1.967286
5.9482608 -3.0202589 -1.973641
5.9272652 -5.1010408 -1.731666
5.945693 -4.9515829 -0.79677701
5.9539208 -4.9751759 -0.799555
6.008553 -5.0307708 -0.231148
5.936811 -4.9764738 -0.79806501
5.9309702 -3.4504139 -0.72292
5.9311261 -4.3397899 -1.975994
5.9577909 -3.3243771 -1.687004
5.9459448 -3.079129 -1.9819731
5.9291902 -4.0849319 -1.443455
5.928699 -3.4874129 -0.72532701
6.0997739 -3.7331281 -0.54109901
5.9312558 -3.5018079 -0.72665298
6.0615201 -5.3124118 -0.54003602
5.929564 -3.5265851 -0.72825801
6.0155811 -5.1545238 -0.23607799
6.048183 -3.2252171 -1.232933
5.9257112 -5.0428448 -2.178385
5.9527612 -3.3845429 -1.694142
5.8922052 -5.8418388 -1.9267
5.9281831 -4.155014 -1.452316
6.0946212 -3.784086 -0.543603
6.0089769 -5.1824598 -0.23687699
5.8080521 -4.2972832 -0.64058399
6.0591021 -3.801337 -0.54161501
6.1041422 -5.3209901 -0.24590001
6.116199 -5.4871149 -0.55458802
5.9212179 -5.1219349 -2.192941
5.9454989 -3.443826 -1.7007771
6.079319 -5.3330421 -0.245388
6.0515561 -5.3599329 -0.245331
5.9157562 -4.5528879 -2.010216
5.9504242 -3.265362 -2.012285
5.9062972 -5.4242849 -1.7800649
6.1786008 -4.1086211 -0.29675999
6.1223588 -4.1118112 -0.29388899
5.9424572 -3.3230181 -2.0194399
5.9134712 -4.7058702 -2.0373521
5.9431682 -4.2207532 -1.8872271
5.9388461 -3.3837321 -2.028367
5.900013 -5.5969291 -1.807447
5.9243321 -4.4438028 -1.489864
6.1213479 -4.2417479 -0.29908001
5.9607582 -4.1361432 -0.82331401
6.0276551 -4.187129 -0.291926
5.921299 -4.7915378 -2.054698
5.9492841 -3.453618 -2.0426061
5.9256158 -4.5199952 -1.500405
6.0559888 -4.1208239 -0.56050402
5.9575491 -4.1768799 -0.82638103
6.2471852 -3.9743149 -0.52210301
5.9490218 -4.1848798 -0.82612199
6.059947 -4.1523991 -0.56277502
6.3099799 -4.0305662 -0.53017098
5.9404359 -4.934237 -0.41412801
5.9041171 -4.8730049 -2.066129
5.9141588 -4.3591561 -1.904115
5.9502072 -3.789171 -1.751651
5.885385 -5.5534101 -1.33381
6.2387261 -4.0252709 -0.52427799
5.9948349 -5.8867502 -0.57277501
5.9565768 -4.665144 -0.35473999
6.2303758 -4.0337811 -0.52410197
5.9012709 -4.9517379 -2.0802419
5.9355869 -4.450067 -1.924041
5.917923 -4.6825819 -1.5215091
5.9533572 -4.1890211 -0.55638802
5.9535708 -5.0781188 -0.42256901
5.9420748 -4.9658298 -0.702124
5.9562302 -4.2346959 -0.55949199
5.8693061 -4.2983632 -0.82713902
5.9434462 -5.9880519 -0.576352
5.9432182 -5.1191802 -0.42418799
5.9046969 -5.0371771 -2.097054
5.9287648 -4.5199318 -1.934568
5.9526272 -3.9276359 -1.773012
5.9331222 -3.650969 -2.071774
5.9495912 -3.9950111 -1.782685
5.9326568 -3.7168031 -2.0830679
5.9157801 -4.8382988 -1.5430191
5.9003921 -4.2940478 -0.55879003
5.8681202 -4.2836208 -0.555547
5.9994788 -5.307745 -0.43765
5.857018 -4.3043132 -0.55598801
5.9277892 -4.6724672 -1.960849
5.9299259 -3.7818041 -2.0937719
5.9170961 -4.9197888 -1.554822
5.8614779 -4.337121 -0.558465
6.116261 -4.2269831 -0.526335
6.04915 -4.9468541 -0.66167301
5.862669 -4.367692 -0.56053603
5.8616552 -4.38168 -0.56136698
5.924551 -4.7479239 -1.973469
5.934412 -3.8524001 -2.107429
5.9174838 -5.0016098 -1.566627
6.0216222 -4.9722128 -0.66129303
5.8564291 -4.407196 -0.56262201
5.8681521 -4.4466028 -0.56612003
6.1145611 -5.4655671 -0.75572801
5.8530402 -4.4494019 -0.565117
5.9125652 -5.0798411 -1.577178
5.915452 -5.8770342 -0.82480502
5.9040818 -5.4670548 -2.180057
5.9234319 -5.576962 -1.052916
5.8565569 -4.2660551 -0.50895
5.9241109 -5.5958419 -1.055023
5.8589468 -4.282352 -0.51011699
5.9317541 -5.6217141 -1.058622
5.8964829 -5.5678701 -2.1985171
