# .PCD v0.7 - Point Cloud Data file format
VERSION 0.7
FIELDS x y z
SIZE 4 4 4
TYPE F F F
COUNT 1 1 1
WIDTH 1571
HEIGHT 1
VIEWPOINT 0 0 0 1 0 0 0
POINTS 1571
DATA ascii
2.131001 -1.836045 13.73925
0.81835198 -3.280431 11.456777
1.1918451 -3.034863 11.558894
1.256266 -2.886785 13.506585
-0.060082 -3.1782501 11.237547
0.37550399 -3.4545839 11.374959
2.1435709 -2.3745601 13.145669
2.1277721 -1.856028 13.713173
0.81156802 -3.2663469 11.318257
0.68401301 -2.416394 11.911944
1.244579 -2.8802359 13.345532
0.375732 -3.478456 11.38933
0.303655 -3.0234151 11.513205
2.421982 -3.718802 10.803052
2.3825221 -3.231498 11.348183
2.3805909 -2.051018 13.020859
2.0872669 -2.6863689 12.122299
1.907495 -1.365014 12.693533
0.81071001 -3.2998531 11.293385
0.67952198 -2.4359181 11.788987
-0.062426999 -3.257812 11.320938
0.30408099 -3.076107 11.570987
1.775741 -2.806637 13.564579
2.1296251 -1.947488 13.719035
0.81091201 -3.338541 11.289831
-0.061179999 -3.280628 11.253491
0.30572799 -3.1654749 11.790627
1.776337 -2.8298919 13.566507
2.1582961 -2.837693 12.593305
0.81263298 -3.3660741 11.31989
0.67906898 -2.4927509 11.771031
0.30112699 -3.0498869 11.189211
2.432081 -3.8247161 10.830603
2.385011 -3.328773 11.340275
2.37041 -2.719923 12.081926
2.3703251 -2.1492839 12.942165
0.68062901 -2.5589919 11.805929
-0.066119999 -3.4079161 11.44191
0.30291399 -3.1633799 11.4276
-0.204353 -2.474781 11.433144
2.114466 -2.8623459 12.282044
2.1277261 -2.0582399 13.694014
2.11449 -1.647594 14.306427
0.68869799 -2.6172631 12.016733
1.18037 -2.629782 13.677264
0.30226499 -3.1636569 11.343228
-0.204466 -2.494019 11.43168
2.1252921 -2.0785019 13.673535
2.0924709 -1.656224 14.132326
0.684111 -2.6151531 11.89315
1.194628 -2.6856411 13.884476
0.30294001 -3.204313 11.432178
-0.20294601 -2.504705 11.382981
2.409946 -3.8774779 10.686337
2.416476 -3.4680221 11.495855
2.3807099 -2.831759 12.126636
0.67049003 -2.607177 11.526674
1.178262 -2.714757 13.63491
0.30500501 -3.3297739 11.706328
2.0804501 -2.125294 13.329919
0.68941897 -2.720926 12.023806
1.1851619 -2.7539959 13.733488
1.124034 -2.8740499 11.67184
1.173206 -2.7472799 13.554438
0.30505899 -3.3726339 11.714245
-0.205152 -2.60938 11.42236
2.396631 -3.9607971 10.583163
2.4138639 -3.5779791 11.452426
1.116191 -2.9097641 11.556286
1.168484 -2.8023281 13.476011
0.30554801 -3.450696 11.781278
2.099278 -2.729255 12.771978
2.1144481 -2.2692299 13.570692
0.66969299 -2.7184539 11.490804
1.129225 -2.9663539 11.727738
1.178726 -2.8506351 13.623472
0.30463499 -3.4415641 11.661828
2.1234059 -3.097739 12.300071
2.02158 -2.652993 12.218056
0.67136002 -2.7463939 11.532079
1.119013 -2.9562969 11.587041
1.164369 -2.8361869 13.409123
0.30444899 -3.455934 11.637484
-0.206947 -2.7124879 11.449065
2.714318 -1.131004 12.176242
2.409575 -4.071341 10.623326
2.3910351 -3.0647421 12.147117
2.0159171 -2.706121 12.167993
0.67708999 -2.8349309 11.675252
-0.21852601 -2.8357289 11.766807
2.0199339 -3.0247779 11.586633
0.68462902 -2.8952241 11.870947
1.121592 -3.0408559 11.607251
-0.209787 -2.8035941 11.510163
0.68049699 -2.892498 11.759221
-0.202748 -2.780725 11.302598
2.7121489 -1.230432 12.159714
0.681171 -2.9551301 11.768501
-0.20922101 -2.87497 11.472792
1.555832 -2.9365079 11.490984
-0.213827 -2.9217219 11.599738
-0.210859 -2.940975 11.503626
2.709985 -1.329652 12.142416
2.3752429 -3.242837 12.010152
-0.21039701 -2.9755459 11.479655
-0.277464 -2.64819 11.400936
0.67110097 -3.0142369 11.485527
-0.203963 -2.9536281 11.290001
-0.27846599 -2.671505 11.420793
0.67286098 -3.0630469 11.525809
-0.214215 -3.0558879 11.572362
2.7044671 -1.427229 12.10672
0.084416002 -2.331367 11.741774
0.66068101 -3.0285251 11.199492
-0.21272799 -3.0839169 11.518814
0.082827002 -2.39376 11.8795
0.66600603 -3.098408 11.333117
-0.213301 -3.1250081 11.523759
1.644356 -3.0455551 13.076615
0.67123502 -3.1493959 11.466899
-0.209668 -3.156899 11.403304
-0.292945 -2.9114771 11.730879
0.67039597 -3.220809 11.431407
0.60329098 -2.8398581 11.682015
-0.28616801 -2.915102 11.554468
0.084504999 -2.4777761 11.668248
0.66909599 -3.231705 11.393786
0.61613202 -2.9403901 12.081719
-0.203317 -3.168947 11.205195
-0.27581301 -2.8808861 11.296081
2.7009079 -1.624692 12.072209
0.085189998 -2.520967 11.577266
0.603356 -2.918448 11.673785
-0.204059 -3.2287159 11.209135
-0.289148 -3.005971 11.606305
0.67723203 -3.3608291 11.592512
0.61012799 -2.9820471 11.882999
-0.212699 -3.3076401 11.44903
-0.28990901 -3.028934 11.619622
0.085202999 -2.557395 11.560402
2.023118 -3.2775781 12.110812
0.677342 -3.3809321 11.591574
0.61264801 -3.018441 11.958997
0.53182101 -2.462574 11.816536
-0.215059 -3.342953 11.510246
-0.28475001 -3.0204711 11.488403
2.7010009 -1.724152 12.063577
0.083586998 -2.641094 11.691281
2.0291629 -2.924772 12.827344
0.60144502 -3.003294 11.600216
0.52582097 -2.481076 11.579896
0.974145 -2.700666 11.67554
-0.21163701 -3.374321 11.395143
-0.279603 -3.0486169 11.34683
0.084686004 -2.639576 11.577551
2.00368 -3.3256011 11.957004
0.53970701 -2.596009 12.115841
0.985551 -2.7557139 11.855971
-0.206687 -3.357054 11.248923
-0.27692199 -3.052494 11.276205
0.60729802 -3.081975 11.777241
0.53635597 -2.5930359 11.984308
0.97868598 -2.7537701 11.742401
-0.278081 -3.0773079 11.299159
2.696249 -1.820694 12.02878
2.2976291 -4.1137242 10.586661
0.59354597 -3.0454481 11.338755
0.53437501 -2.639154 11.902711
-0.27797201 -3.131892 11.280219
0.084495999 -2.734237 11.555016
2.0201581 -3.71084 11.426025
0.59063399 -3.0440631 11.244709
0.98507297 -2.852509 11.83255
-0.28657901 -3.1990049 11.484024
2.0029249 -3.697387 11.306388
0.58772302 -3.0423889 11.150698
0.52900201 -2.640101 11.690941
0.98137701 -2.8600459 11.769856
-0.208424 -3.4797399 11.262222
-0.29094201 -3.242599 11.584526
2.6959109 -1.939311 12.014233
2.2271039 -3.6046469 10.979328
0.08382 -2.820024 11.586647
0.010945 -2.4550281 11.661246
0.59876502 -3.178103 11.486436
0.52469099 -2.6669171 11.518916
-0.20799901 -3.5313201 11.231795
0.011704 -2.4659021 11.608565
0.60471702 -3.2405379 11.668828
0.525105 -2.689364 11.532857
-0.210906 -3.571939 11.307714
0.083099999 -2.8708539 11.639391
0.01092 -2.492846 11.650486
0.60143298 -3.2360921 11.562992
0.52130598 -2.6800179 11.383895
0.97056001 -2.920898 11.579642
-0.21271899 -3.6043589 11.352688
-0.294516 -3.3578801 11.642737
2.6948991 -2.0376041 11.997286
0.085585997 -2.8752961 11.376851
1.532811 -2.717078 13.734111
0.59400302 -3.2388501 11.321688
0.52456498 -2.7626679 11.504029
0.98137301 -3.0162649 11.742874
-0.277899 -3.315033 11.222898
0.083575003 -2.9342141 11.56055
1.518811 -2.714781 13.578961
0.59633499 -3.275347 11.390918
0.52776903 -2.8070099 11.625578
0.97110999 -2.99979 11.574791
0.87785399 -2.592361 11.765452
-0.28386599 -3.36937 11.36164
0.083246 -2.959199 11.583775
1.513868 -2.728256 13.522107
0.60134798 -3.3323269 11.5436
0.52889401 -2.8353789 11.666694
0.96839201 -3.0094409 11.527658
0.88575202 -2.638252 11.909277
-0.27885401 -3.3575029 11.234697
2.690907 -2.1335781 11.964003
0.083930001 -2.9992681 11.493117
0.011341 -2.637311 11.573074
1.516591 -2.7999899 13.54208
0.60552001 -3.4225349 11.663209
0.53792799 -2.966938 12.009007
0.079387002 -3.1131301 11.916447
1.519437 -2.827585 13.569558
0.60136801 -3.4098859 11.530276
0.53783399 -2.98632 12.002856
1.5294549 -2.891207 13.671557
0.97152698 -3.1359129 11.556348
0.88312501 -2.747617 11.843806
0.083304003 -3.1029551 11.510682
1.5168591 -2.91187 13.528074
0.964881 -3.1495371 11.442426
0.88197899 -2.7829001 11.816463
0.084334999 -3.098644 11.404927
0.007487 -2.7941489 11.768553
0.96131498 -3.155175 11.381594
0.88489902 -2.8130541 11.867454
0.081872001 -3.1885309 11.620168
0.007127 -2.835994 11.776478
0.5291 -3.0526371 11.648825
0.86807698 -2.7909479 11.550058
0.082989 -3.200171 11.498175
0.51818502 -2.997144 11.222714
0.86979198 -2.835768 11.575484
0.083309002 -3.2287259 11.45024
0.011079 -2.8624139 11.509645
0.52021801 -3.0528619 11.296181
0.86958802 -2.8734961 11.565638
0.082589 -3.263155 11.509781
0.0080629997 -2.9185009 11.685815
0.51658702 -3.039716 11.15351
0.87790298 -2.924382 11.716136
2.635304 -3.501879 10.267642
0.082636997 -3.2983191 11.488774
0.52845001 -3.183826 11.604373
0.86787701 -2.924638 11.524088
0.082255997 -3.3429329 11.506596
0.011344 -2.951103 11.459956
0.526788 -3.2077751 11.535072
0.87243402 -2.98085 11.601882
0.0073870001 -3.020659 11.6924
1.8649139 -3.416887 11.463231
0.53251302 -3.2796609 11.75222
0.86943197 -2.988307 11.542984
2.099978 -3.5151639 10.885216
0.52762902 -3.293299 11.555573
0.86475003 -3.0270231 11.446437
0.0097359996 -3.0641489 11.522889
0.52056497 -3.2462621 11.280936
0.86428702 -3.0442121 11.43435
0.080959998 -3.4823091 11.576294
0.0076219998 -3.1109419 11.643478
0.521842 -3.2773609 11.326776
0.86361301 -3.0605049 11.41834
2.63674 -2.5753369 11.608782
0.0087200003 -3.151679 11.556131
1.939414 -4.276495 10.672385
0.533485 -3.447098 11.764529
0.86872602 -3.1581049 11.498271
0.004489 -3.247324 11.796561
1.9359241 -4.3039341 10.637481
0.88464397 -3.244802 11.78766
2.6342139 -2.687815 11.575575
2.1259029 -4.1353841 10.161832
0.0080869999 -3.2529199 11.558823
1.930389 -4.3440008 10.583261
0.86348498 -3.2119801 11.386925
0.007367 -3.2816999 11.595041
0.85774201 -3.205925 11.277408
0.0079779997 -3.291564 11.551451
2.127439 -3.854892 10.977715
0.0096030002 -3.3231311 11.432445
0.0078110001 -3.3677599 11.532567
0.85437298 -3.2847171 11.196213
0.006701 -3.4026389 11.591809
0.85750502 -3.3176019 11.249693
2.135514 -4.3249149 10.15807
2.1155131 -3.9228439 10.875963
2.249465 -5.3260312 9.1443844
2.1228831 -4.0276179 10.894498
1.863543 -4.28161 10.641538
1.864024 -4.3181009 10.632868
2.1121731 -4.096209 10.799284
2.1722109 -5.276072 8.6861086
2.1099081 -4.181077 10.756215
1.787033 -3.7506471 11.353442
1.7882071 -3.790786 11.35224
2.1372399 -4.6654201 10.040034
2.180583 -5.4438949 8.6485796
2.497498 -4.1288052 9.3649597
2.1653759 -5.2767391 9.275115
2.0877321 -4.4162102 10.522074
2.4656141 -4.1672492 9.1863356
2.4461181 -3.307848 10.423887
2.1273069 -4.9071541 9.8735313
2.4781129 -4.2661471 9.2123556
2.6134479 -5.533638 7.8276181
2.1205111 -4.9722209 9.7993975
2.428056 -3.9053371 9.597784
2.4785559 -4.0713172 9.8094378
2.445713 -4.0959358 9.6250973
2.0752289 -5.4798579 8.5710421
2.5288489 -4.7472248 9.2760649
2.0694649 -5.535089 8.5011539
2.5252581 -4.416976 9.9336338
2.5372231 -4.0760131 10.701577
2.5203481 -4.572814 9.846385
2.412385 -4.1237922 9.9949656
2.6012111 -5.888124 8.0300655
1.765036 -5.4573741 8.8600674
1.7570159 -5.4457211 8.8033018
2.5342081 -4.7656279 9.8490324
2.5184989 -4.816227 9.7419109
2.4448061 -4.747087 9.3673658
2.6018641 -6.3506169 7.212163
1.684641 -5.4212532 8.7530918
2.015394 -6.007627 7.8477201
2.4519031 -5.9194908 7.2117071
1.939433 -5.4470892 9.0189104
2.4555681 -5.0976148 9.267786
2.4513741 -6.1605091 7.0309329
2.3744321 -5.36303 8.6756039
2.3350389 -5.0277581 9.1857023
2.375875 -5.4538679 8.6347876
2.082432 -6.9093852 6.9751978
2.370347 -5.5126538 8.5704126
2.362103 -5.912415 7.7322941
2.3653109 -5.9863691 7.7012529
2.391541 -6.2478218 7.1336551
2.069102 -7.150105 6.656908
2.345753 -6.3655219 6.7714372
2.2589879 -5.7858582 7.7504301
2.261236 -5.6171179 8.4372168
2.0660591 -7.3729048 6.4159279
2.451441 -7.010746 5.7575369
2.3334711 -6.3869019 6.6803341
2.3882749 -6.4501271 7.5060868
2.427511 -6.7833281 6.913496
2.323256 -6.3851342 7.161109
2.251086 -5.9587421 7.5874939
2.494756 -7.2251792 6.3566451
2.3606 -6.638916 6.6300879
2.2576611 -6.041945 7.5704598
2.2420371 -5.8454099 8.18186
2.335201 -6.6176229 6.4926901
2.2401249 -5.9089389 8.1300573
2.3597851 -6.7490158 6.5273819
2.4349201 -7.1966991 6.0077472
2.443789 -7.2765589 5.9806709
2.149689 -5.9256368 7.546597
1.964102 -7.4835911 6.21069
2.4703441 -7.512105 5.3090172
2.391865 -7.2199702 5.7038398
2.631366 -5.834754 6.8165379
2.2462239 -6.459249 7.1906691
2.1087799 -5.9287629 7.2809272
2.4746311 -7.617713 5.2065949
1.9374011 -7.5257702 5.9340019
0.0096779997 -6.899219 5.2855072
0.330282 -7.3871551 5.4846258
0.66372597 -7.3479648 5.5819039
0.666354 -7.3982582 5.6064119
0.0086740004 -6.970583 5.2746172
0.0050860001 -7.098412 5.3685231
0.33109501 -7.4790468 5.4665489
0.332596 -7.594902 5.5061231
-1.7e-05 -7.3063679 5.4741449
0.32602099 -7.2101922 5.1650538
0.667404 -7.4716659 5.5526071
0.32619199 -7.228487 5.161911
1.935184 -7.5794339 5.076818
0.32600001 -7.2416878 5.1179662
0.0075869998 -7.112359 5.1941271
0.32721499 -7.3308101 5.1545382
2.193732 -6.6001148 6.7332702
0.32931 -7.4820409 5.2224388
0.0076390002 -7.1486759 5.1514711
0.32737601 -7.3730831 5.115551
0.66222602 -7.4831161 5.3695111
0.0077010002 -7.1562042 5.1394582
0.32757401 -7.3929782 5.1132631
0.27663001 -7.5118141 5.6578369
0.0056429999 -7.2539272 5.1660962
0.32736 -7.404211 5.0675182
0.275769 -7.443224 5.5386119
0.330026 -7.5742421 5.184742
0.27590999 -7.4664798 5.5392251
-0.000375 -7.4863591 5.302494
0.33352199 -7.8040428 5.3296161
0.27599901 -7.4932818 5.5234051
2.149827 -6.5679059 6.4678731
-0.0017049999 -7.5513682 5.3179379
-0.00155 -7.5560408 5.3027868
0.32890099 -7.5455561 5.0697498
0.27371401 -7.265245 5.2699299
0.328722 -7.5506921 5.0373211
0.27331999 -7.237906 5.2093682
2.1696701 -6.690022 6.493299
0.65942401 -7.5552731 5.1838112
-0.001034 -7.5774651 5.2448068
0.33161801 -7.743988 5.150445
0.664478 -7.6456418 5.2371559
-0.001334 -7.59759 5.2421651
0.330248 -7.6675348 5.0728288
0.66198599 -7.623189 5.1820221
0.000421 -7.5564799 5.172039
0.33452401 -7.9472141 5.2505589
0.274472 -7.4030838 5.255064
2.186795 -6.8036728 6.5070882
2.2587521 -7.2081199 5.3947892
0.63307202 -7.171793 4.7899451
0.61201 -7.6603122 5.3350968
0.60829598 -7.6106548 5.2567129
0.27374101 -7.3518672 5.1380239
0.65877903 -7.6148548 5.0829282
0.60797501 -7.6136661 5.2402339
0.001734 -7.559207 5.0818558
0.273718 -7.3562732 5.123168
1.337533 -7.7360339 5.147429
0.66366202 -7.7117462 5.12111
0.0075500002 -7.3767982 4.9030099
0.27421099 -7.425385 5.1428232
-0.095537998 -6.8764892 5.337739
1.321571 -7.6485839 5.0431151
0.67076099 -7.8452959 5.186851
0.006575 -7.428822 4.9078722
0.27477601 -7.5039191 5.1697812
-0.096077003 -6.9069829 5.32794
0.67359 -7.9004011 5.2102599
0.59819901 -7.478097 5.038506
0.0050030001 -7.4929042 4.9394622
0.27548799 -7.5907259 5.2214231
2.1825359 -6.8514562 7.0592518
1.852486 -7.6291218 5.0295439
0.59756398 -7.4920549 4.994956
0.001732 -7.6349282 4.9943662
-0.114604 -7.3444719 5.6425362
0.59562802 -7.4647431 4.9552841
-0.113411 -7.3288798 5.6089621
0.59335297 -7.4310341 4.91078
0.274739 -7.5424652 5.0895252
-0.112495 -7.319191 5.5807471
0.59714103 -7.526391 4.931273
0.275215 -7.6178918 5.0939732
0.27497101 -7.5969949 5.059021
0.87122798 -7.320251 5.282784
2.2257791 -7.1714129 6.431006
2.1402259 -6.8356462 6.7769241
2.2535329 -7.3824492 5.1493001
2.2486711 -7.3918338 5.7297049
0.55386698 -7.4328971 5.509717
0.87746602 -7.4138279 5.30477
0.27590099 -7.7304139 5.0893831
1.263742 -7.5967021 5.0766802
0.55278599 -7.4197531 5.479043
0.88757598 -7.5305772 5.382812
0.27682701 -7.842186 5.1573062
1.273291 -7.6712379 5.1168542
0.55346102 -7.4430079 5.4795771
0.87995201 -7.458539 5.3040991
0.83257997 -7.3465781 5.615284
0.27700099 -7.8686771 5.1589298
2.18344 -7.0761728 6.2250772
1.2665319 -7.6510768 5.0456781
0.55049801 -7.4090371 5.3931718
0.55629599 -7.5391889 5.4838228
0.89212298 -7.62532 5.3652978
0.87127501 -7.4375482 5.1378889
0.85788101 -7.30199 5.0104918
0.55185598 -7.5101271 5.325562
0.87766302 -7.533112 5.159215
2.136945 -6.9958549 6.6089702
0.560821 -7.7174001 5.4575
0.86890298 -7.4559202 5.0609198
0.83195603 -7.4631448 5.4632349
0.56011403 -7.7208838 5.4217539
0.89633298 -7.7712922 5.2732701
0.83608001 -7.5291939 5.4810772
0.87212098 -7.5170441 5.0545058
2.1540191 -7.1279888 5.9611092
0.54230702 -7.3696399 5.0807648
0.87879503 -7.6071701 5.0883689
0.53405702 -7.2111759 4.917531
0.87435001 -7.5761309 5.0276909
-0.15615 -7.2465849 5.2281351
0.55677402 -7.7040448 5.2933178
2.178174 -7.2675261 5.991467
0.87397802 -7.5979338 4.9898362
0.81661302 -7.378232 5.2013078
-0.158776 -7.3244972 5.2379951
0.55310398 -7.6609459 5.183876
0.79055297 -7.0934472 4.9287162
-0.16362099 -7.4346738 5.2931442
0.110153 -7.2554011 5.5999551
0.56008101 -7.8193622 5.289659
0.781699 -6.9989882 4.8330388
2.6177981 -6.9089241 5.8085399
2.263319 -7.735373 5.4344692
1.221131 -7.7039862 5.1269708
0.55243802 -7.6814408 5.125536
0.78544599 -7.0678291 4.8370051
0.77538002 -7.3507519 5.5676198
-0.16899601 -7.5747781 5.3338718
1.208027 -7.6170621 5.0411792
0.56058902 -7.8657689 5.2499442
0.83644497 -7.6723142 5.3113761
0.77623898 -7.3709831 5.5657911
-0.165572 -7.5194039 5.2690539
1.209553 -7.6369729 5.0382261
0.56273401 -7.9208441 5.27355
0.83143097 -7.622735 5.2520618
0.77577198 -7.3746819 5.5494719
-0.16571601 -7.531745 5.2602878
2.2237749 -7.5391588 6.0374951
2.1597199 -7.3028569 6.482542
2.6173511 -6.957706 5.7554932
2.2487731 -7.7278318 5.3318849
0.83399302 -7.6798229 5.2414918
0.77773702 -7.4277778 5.5372119
-0.162754 -7.5035629 5.1809378
0.81878197 -7.5098948 5.0864849
0.77630597 -7.4193029 5.5104151
-0.160871 -7.4770031 5.1406808
0.82078803 -7.5422521 5.0938759
0.77776998 -7.4471011 5.5148849
-0.151448 -7.3058939 4.9835768
-0.14775699 -7.262023 4.8944879
1.506996 -7.72681 5.1464529
0.82760799 -7.6578951 5.1115618
-0.148874 -7.2925439 4.9010568
1.492486 -7.653183 5.0701079
0.82299203 -7.611969 5.056901
-0.155582 -7.4309478 4.993464
0.061702002 -6.9629178 5.336957
0.829795 -7.7189131 5.0851331
0.77414 -7.4760861 5.385469
-0.16874699 -7.712996 5.1618118
0.77536398 -7.500843 5.387033
-0.167593 -7.7000942 5.1329098
0.77622998 -7.5303679 5.373517
-0.16716 -7.7102022 5.1036839
2.2239659 -7.7038412 5.854835
0.052205998 -7.434783 5.664165
1.158244 -7.639648 5.0970478
-0.156262 -7.5166612 4.9162488
0.058122002 -7.1816511 5.419126
1.157654 -7.6439328 5.0818758
0.74070001 -7.1035399 4.965641
0.05985 -7.1241069 5.330153
1.155037 -7.6413498 5.0430789
0.74011898 -7.1132569 4.9381399
0.058405999 -7.2089152 5.3668299
0.75426799 -7.312099 5.0639572
0.701864 -7.4067831 5.5436082
0.053929999 -7.4199638 5.5324988
0.774432 -7.5802708 5.2626138
0.70051998 -7.3969331 5.5153809
0.053548001 -7.4573088 5.5260549
0.77313 -7.581533 5.2261739
0.69802898 -7.3799491 5.4618049
1.685201 -7.6429429 5.0261211
0.76025802 -7.4329429 5.0701032
0.69827098 -7.4020662 5.4422441
0.76136899 -7.464798 5.0590472
0.69850099 -7.4240441 5.4227209
2.233907 -7.8917561 5.7112532
0.70116699 -7.4905009 5.4215941
1.420559 -7.5349422 5.024169
0.70275801 -7.5322618 5.4185352
0.060355 -7.2486219 5.157176
0.77281499 -7.6661062 5.1069131
0.70193899 -7.5295339 5.3969202
0.76778698 -7.617744 5.0325708
0.69998598 -7.5193338 5.3499141
0.110979 -7.675118 5.0762839
0.70096898 -7.5611758 5.3275728
0.110101 -7.7701359 5.0939908
0.058026999 -7.433454 5.1626592
1.113881 -7.7262821 5.170146
0.70006901 -7.5751901 5.282146
1.107386 -7.6819491 5.116972
0.69631898 -7.5288391 5.2252049
0.06191 -7.2734408 4.9949298
1.100316 -7.6327481 5.0602932
0.690162 -7.446743 5.1393728
0.056901999 -7.5346479 5.152061
1.090398 -7.577271 4.9629111
0.68403 -7.3821301 5.0318098
0.054513 -7.655849 5.23106
0.054699998 -7.6572528 5.2132869
0.67841399 -7.3158002 4.9420891
2.1249509 -7.6615472 5.120069
0.054712001 -7.6861968 5.180058
0.69635999 -7.609149 5.1218829
0.055367 -7.6655431 5.144896
0.68800402 -7.4929862 5.0111609
0.057091001 -7.5945859 5.0701418
1.387628 -7.6902838 5.1091571
0.68027502 -7.3858938 4.9082499
2.1164811 -7.6721172 5.0362039
0.058407001 -7.5614481 4.9891391
1.384166 -7.695219 5.0575008
0.057057001 -7.6349192 5.0281992
0.71018302 -7.8692131 5.2141399
0.057645001 -7.6169629 4.9958549
1.03689 -7.5063171 5.0729771
0.70287299 -7.7680302 5.116457
1.036575 -7.5298972 5.0367641
1.057096 -7.7169528 5.1662431
1.058562 -7.7475719 5.1529799
1.042256 -7.63164 5.0067248
1.62688 21.210012 14.175015
1.619702 21.023703 14.245073
0.53962702 21.05143 14.160957
-0.23126701 19.965227 14.8911
-0.233523 20.033272 14.993097
-0.23102701 19.847881 14.952196
0.53365499 20.516973 14.777665
-0.231655 19.805569 15.020279
0.532511 20.426985 14.812186
0.386448 21.152382 14.120437
-0.231481 19.762136 15.0371
0.53198999 20.385159 14.831617
0.38613001 21.12109 14.148421
-0.231723 19.666582 15.114154
0.53077602 20.282169 14.906164
0.38504601 21.010633 14.220738
-0.23165201 19.627817 15.134338
0.53045499 20.253096 14.934831
0.384716 20.977575 14.24731
-0.23172 19.595325 15.159384
0.53008401 20.220781 14.961046
0.38430601 20.934629 14.266968
1.317968 21.232141 14.192658
-0.23185299 19.494633 15.231748
0.52768898 20.040819 14.97665
0.38336 20.840212 14.349571
-0.23185 19.458899 15.254044
0.52830797 20.072187 15.050856
-0.54392499 21.200573 14.169619
0.38307199 20.811911 14.379252
1.310956 21.058941 14.173076
-0.23170701 19.416893 15.271273
0.526335 19.936333 14.997954
-0.54018402 21.063587 14.125451
0.382651 20.767233 14.397342
-0.232081 19.326735 15.351378
0.52474099 19.807558 15.050401
-0.53988802 20.96476 14.205429
0.38280401 20.807467 14.575371
-0.232041 19.289326 15.372066
0.52434999 19.773565 15.074582
-0.53955799 20.925152 14.227368
0.382884 20.824371 14.637556
-0.23196501 19.250347 15.391415
0.52393502 19.737963 15.09747
-0.53916901 20.883884 14.248077
0.382016 20.724174 14.615834
-0.23240501 19.162813 15.473149
-0.53886902 20.784639 14.326976
0.381284 20.654287 14.715849
-0.232329 19.123749 15.492212
-0.54010302 20.789051 14.379599
0.380826 20.604443 14.729863
-0.23228601 19.086214 15.512465
0.52213502 19.576998 15.224514
-0.54139501 20.794979 14.433426
2.088094 21.118444 14.187906
-0.232476 18.987434 15.584369
0.52109098 19.482281 15.301771
-0.54126799 20.699905 14.515161
2.086695 21.082146 14.212474
-0.23246799 18.951353 15.605613
0.52065498 19.44488 15.322801
-0.54058498 20.65024 14.52944
2.0844729 21.016136 14.266003
0.51980603 19.371677 15.365972
-0.54102099 20.601286 14.593994
-0.69813699 21.178314 14.137446
2.080096 20.925323 14.302111
0.51908201 19.306086 15.415026
-0.54040903 20.522921 14.63715
-0.69731098 21.100744 14.183329
0.51857501 19.263922 15.431904
-0.54059798 20.497446 14.668606
-0.697281 21.071001 14.212352
0.51802099 19.209126 15.489488
-0.54062402 20.436779 14.724392
-0.69708002 21.008202 14.268055
0.51703298 19.126236 15.523955
-0.54059201 20.374262 14.778663
-0.69583201 20.920538 14.306318
0.51679403 19.100994 15.554398
-0.540021 20.32769 14.794405
-0.69586998 20.892279 14.33615
0.51612198 19.038141 15.605055
-0.54004502 20.266703 14.849557
-0.69545698 20.824268 14.38772
0.51525903 18.96278 15.645133
-0.53919202 20.18149 14.886381
-0.69455302 20.744617 14.430847
0.37335801 19.795446 15.079307
1.413518 18.815664 15.891958
-0.53944701 20.126654 14.945813
-0.69455701 20.68618 14.488766
0.37275901 19.732204 15.131289
-0.53863901 20.073629 14.95609
-0.69403303 20.644651 14.508894
0.37245399 19.699699 15.156524
1.412045 18.725975 15.971284
-0.53620201 19.945385 14.959284
-0.69361597 20.576168 14.559358
0.37179399 19.628315 15.201857
1.4105231 18.657539 16.016586
-0.53557599 19.866571 14.999663
-0.693757 20.520634 14.618999
0.371223 19.567909 15.255687
-0.53535002 19.829473 15.021506
-0.69281101 20.469288 14.63169
0.370895 19.532125 15.278114
0.077436998 21.106424 14.10016
-0.53548902 19.740248 15.103847
-0.692635 20.376701 14.713975
0.36998501 19.434099 15.352562
0.077251002 21.073507 14.126944
-0.53502703 19.696743 15.120493
-0.69168699 20.325333 14.726268
0.36969501 19.402893 15.378473
0.077137999 21.029013 14.145741
-0.53479898 19.659531 15.141971
-0.69172001 20.296503 14.755035
0.36936799 19.366985 15.400555
0.076594003 20.928461 14.224387
-0.53464198 19.561995 15.217188
-0.69154 20.203457 14.836341
0.36849901 19.273182 15.477834
0.076472998 20.88555 14.243964
-0.53470498 19.532524 15.244586
-0.69086999 20.158461 14.85293
0.36819899 19.240269 15.502177
-0.53435802 19.492065 15.263218
-0.69076198 20.126261 14.879001
0.36797199 19.216604 15.534069
1.001519 21.018717 14.187237
-0.53402001 19.389429 15.333706
-0.69022602 20.024782 14.953314
0.36709499 19.120749 15.609218
-0.53420001 19.362919 15.363306
-0.68997598 19.989279 14.976709
0.36670899 19.076914 15.624312
-0.53379202 19.320818 15.380293
-0.68965501 19.95216 14.99882
0.36632401 19.033079 15.639308
-0.53333098 19.214708 15.447225
-0.68932498 19.855042 15.075742
-0.533333 19.18339 15.472738
-0.68886203 19.814663 15.095121
-0.53292298 19.141224 15.489309
-0.688187 19.769531 15.110742
-0.53275198 19.042494 15.561535
-0.68827599 19.68148 15.194001
-0.078634001 21.211214 14.191596
-0.53269303 19.009499 15.585451
-0.68717599 19.626854 15.201886
-0.53316802 18.958841 15.646023
-0.68751502 19.574259 15.261922
-0.68672299 19.496347 15.301803
-0.68689197 19.469875 15.331581
0.85119098 21.18911 14.155557
-0.68616998 19.393501 15.372345
0.84971499 21.109844 14.20035
-0.68601 19.329414 15.422732
0.84829199 21.032248 14.246021
-0.685992 19.268404 15.47549
0.84765399 20.995844 14.270383
-0.685664 19.230825 15.496055
1.121776 19.336708 15.431095
0.846183 20.916393 14.31431
-0.684793 19.150984 15.533147
1.121012 19.280354 15.487676
-0.68491501 19.092777 15.587804
-0.684726 19.058182 15.610546
-0.081891 20.617098 14.77137
0.98263299 19.980469 14.980113
-0.68444401 18.960482 15.683582
-0.082226999 20.599489 14.808871
1.117817 19.110872 15.605218
-0.68340302 18.907406 15.690647
-0.082359001 20.567287 14.835731
1.116936 19.071646 15.624173
-0.68328297 18.874237 15.714312
-0.082731999 20.468962 14.914839
1.11043 18.871185 15.611404
-0.684062 18.79904 15.805722
-0.082795002 20.431807 14.937872
-0.082607999 20.376976 14.947703
-0.083135001 20.289469 15.034116
-0.083172999 20.250605 15.055563
-0.083052002 20.200556 15.068488
-0.081359997 19.958342 15.036286
-0.082194 19.97514 15.099647
-0.081932001 19.915655 15.104631
-0.082332 19.819679 15.182518
0.97351903 19.371908 15.518187
-0.082318999 19.777596 15.200548
-0.082960002 19.739162 15.27218
-0.082840003 19.648552 15.302777
-0.082755998 19.601681 15.316681
-0.083140999 19.545601 15.374148
-0.083709002 19.501751 15.441325
-0.083977997 19.437525 15.492163
-0.083867997 19.388992 15.504238
-0.083599001 19.288855 15.525523
-0.083539002 19.202797 15.557841
-0.083774 19.177485 15.58841
0.82203197 19.406191 15.394064
-0.076903 19.096842 15.62416
0.82679898 19.302267 15.411981
-0.077229999 19.035295 15.676064
0.826895 19.270781 15.488632
-0.077336997 19.000589 15.698678
0.82553297 19.209946 15.490249
0.82325101 19.084902 15.541311
0.82334697 19.070414 15.580612
0.82203799 19.011204 15.582912
0.82174802 18.948919 15.685254
0.82169902 18.929541 15.72057
0.65256602 19.104076 13.314385
0.65204 19.069296 13.335499
0.65081298 19.003599 13.334426
0.65019703 18.94142 13.427502
2.345649 18.892588 13.400521
0.65018803 18.929197 13.464695
0.65003198 18.910437 13.497178
1.358963 19.241404 12.933017
0.65062898 18.900644 13.628918
1.372712 19.459158 13.127431
0.649737 18.849421 13.637642
1.394454 19.812958 13.416534
0.647488 18.738735 13.60224
1.395575 19.778324 13.532755
2.3532381 18.780409 13.734471
0.64731503 18.694477 13.70848
1.393316 19.721813 13.540231
0.64683002 18.660898 13.729847
0.64107102 18.258238 13.982283
0.64261901 18.299105 14.108282
1.341831 18.562599 13.450379
0.64201999 18.246855 14.161669
1.341318 18.535809 13.476381
0.642156 18.239437 14.203145
0.64257401 18.230598 14.291117
0.64143097 18.154419 14.325469
2.054976 19.022524 13.004861
2.0378251 18.785936 12.973927
2.0366681 18.754951 12.996934
2.03054 18.671911 12.982945
2.039809 18.71188 13.146508
2.0409811 18.70496 13.186787
2.0427749 18.704428 13.231745
2.0240979 18.452587 13.184867
2.029927 18.493811 13.260164
1.202347 18.724451 13.150774
1.202881 18.717548 13.19109
1.200579 18.638847 13.224989
1.194069 18.47928 13.199595
1.195362 18.486734 13.250254
1.904038 18.897938 12.940588
1.192644 18.400003 13.277228
1.9031579 18.85074 12.997407
1.191864 18.350126 13.33105
1.914912 18.946737 13.155146
1.902485 18.786823 13.087364
1.903042 18.75544 13.155371
1.1900001 18.226448 13.466134
1.920957 18.919872 13.363888
1.900424 18.649811 13.260734
1.186293 18.066887 13.573413
0.93626899 19.237116 13.006312
0.93731898 19.250338 13.060847
0.93020201 19.012566 13.031274
0.92912698 18.968336 13.045462
2.6429451 17.559374 13.2185
0.92902398 18.950258 13.077968
0.92695802 18.848551 13.141829
0.925946 18.805902 13.156742
0.92659003 18.792122 13.237704
0.92596197 18.743917 13.29401
2.549969 18.157198 13.069413
2.5493319 18.112808 13.12607
2.548898 18.069933 13.183872
2.548825 17.969744 13.333636
1.561814 18.439688 13.285453
2.5509191 17.803608 13.614842
1.559885 18.356808 13.360532
1.556664 18.293261 13.358868
2.4651289 18.670731 13.284877
2.462749 18.591063 13.363548
2.4589059 18.538704 13.370822
2.4535389 18.473532 13.368537
2.4551649 18.42713 13.471076
1.560113 18.169851 13.677095
1.557935 18.120564 13.685412
2.4518671 18.35914 13.511899
1.556794 18.085545 13.704558
2.4414959 18.211805 13.538529
2.43888 18.088224 13.673718
2.438853 18.067476 13.703763
2.438797 18.025921 13.763862
2.4248011 17.827759 13.793918
2.4299099 17.849054 13.856807
2.099077 -3.1062829 21.458014
2.1079559 -3.1542439 21.558352
1.895272 -2.3467591 20.60499
1.897228 -2.382457 20.627556
1.900761 -2.42013 20.669909
2.0981979 -3.4173131 21.416388
1.905974 -2.5271101 20.729235
2.0984459 -3.4524169 21.415413
1.90856 -2.5640161 20.759432
1.150236 -2.753494 20.941481
2.1030929 -3.4948821 21.46567
1.912881 -2.6032829 20.81138
1.1526181 -2.8618591 20.991323
1.918252 -2.7116921 20.871765
1.317714 -3.3570521 21.693798
1.154084 -2.899899 21.022997
1.924464 -2.7540989 20.947227
1.3192919 -3.3966589 21.72261
1.15555 -2.938045 21.054604
1.930517 -2.7965281 21.020626
1.159404 -3.051564 21.137236
1.936833 -2.907866 21.091921
1.1629471 -3.096029 21.216166
1.939577 -2.946105 21.123442
1.1638941 -3.1332619 21.235535
1.941218 -2.982794 21.141039
1.1659321 -3.2429459 21.275541
1.166273 -3.2785881 21.280796
1.1677099 -3.352262 21.309063
1.171507 -3.43365 21.390406
1.173665 -3.4753799 21.436905
1.174757 -3.5487051 21.4566
1.96172 -3.3944931 21.362438
1.178208 -3.6301119 21.529318
1.968467 -3.4755981 21.439491
1.180337 -3.707469 21.572212
1.9733011 -3.553725 21.492683
1.183358 -3.7530429 21.637955
1.978406 -3.5978391 21.552664
1.79286 -2.6766291 20.912455
1.180763 -3.8142841 21.571707
1.79909 -2.7539151 20.992111
1.801214 -2.825237 21.016123
1.803162 -2.8624001 21.039869
1.8084019 -2.973316 21.102924
1.811808 -3.0132289 21.146217
1.814486 -3.0520489 21.179541
1.04514 -2.8503821 21.543926
1.8198709 -3.1644709 21.243605
1.04669 -2.890172 21.583574
1.8235691 -3.205497 21.290504
1.825518 -3.2435269 21.313602
1.832069 -3.3593609 21.392492
1.834164 -3.398 21.417299
2.6106789 -3.097261 21.252314
1.838298 -3.440618 21.469692
2.429168 -2.5561099 20.813122
2.440644 -2.6349859 20.91885
2.4484529 -2.710814 20.988571
2.4504099 -2.746851 21.004547
2.453686 -2.818332 21.030499
2.2525749 -1.9320689 20.35338
2.4588311 -2.8921499 21.073887
2.256254 -2.0009739 20.387857
2.4702151 -2.9391179 21.180452
2.2611871 -2.0380771 20.43676
2.46714 -3.0040519 21.144539
2.2658091 -2.1081691 20.480921
2.520175 -3.520469 21.607344
2.353801 -3.047585 21.319157
2.348871 -3.1445949 21.258732
2.3555391 -3.1878841 21.323341
2.356415 -3.223592 21.328659
2.366739 -3.341526 21.423277
2.386714 -3.4743309 21.615824
2.3811319 -3.536093 21.550606
2.3922369 -3.5875399 21.659758
1.408339 -3.5004661 21.708889
2.702131 15.672873 11.072572
1.842999 15.630161 10.504139
1.933993 15.016533 10.967604
1.935946 15.001164 11.03123
1.838925 15.543738 10.555195
2.7039521 15.372406 11.544409
2.589715 15.703906 11.127054
2.51336 15.037436 10.979981
2.507709 14.982744 10.97671
2.4344101 15.716163 10.513445
2.4317329 15.680819 10.526141
2.423027 15.569978 10.560423
2.572614 15.330502 11.428503
2.4246521 15.565595 10.594392
2.582643 15.379695 11.504678
2.4277711 15.424745 10.867552
1.7088259 15.050974 11.003682
2.4862471 15.773215 11.273426
2.33306 15.823086 10.616292
2.3915789 15.002057 10.932268
2.4605219 15.366672 11.474699
2.341212 15.622355 11.078178
1.591567 15.024492 10.977115
2.3626671 15.766752 11.220969
1.593963 15.035188 11.022598
2.3644061 15.762766 11.256672
1.604952 15.141597 11.139871
1.625731 15.32366 11.39171
1.6347049 15.406648 11.493341
2.216893 15.861551 10.581839
1.633659 15.378226 11.510703
2.2828159 15.017687 11.012616
2.2072101 15.735505 10.606908
2.224052 15.85531 10.727337
2.2094729 15.721693 10.671925
2.3349819 15.319604 11.430511
2.191083 15.525645 10.646534
2.3454959 15.379927 11.515207
2.1919119 15.516211 10.677073
2.1943619 15.51971 10.716808
2.390739 15.642645 11.874491
2.2197349 15.673815 10.939364
2.091687 15.769173 10.583253
2.163908 15.01579 10.948657
2.1736591 15.059208 11.056399
2.098386 15.778868 10.701773
2.0787361 15.578616 10.63732
2.213758 15.323148 11.370394
2.0726349 15.510477 10.626851
2.0724671 15.461096 10.703506
2.0757191 15.472683 10.748921
2.2554779 15.561778 11.749046
2.084311 15.529606 10.826692
2.0964379 15.314352 11.392148
2.10692 15.367205 11.50992
1.080551 -19.867737 62.335426
1.076671 -20.089352 62.006157
1.074054 -20.233662 61.779835
1.072142 -20.291306 61.622765
1.070511 -20.458204 61.472271
1.067331 -20.585852 61.203396
1.065709 -20.750883 61.052155
1.063887 -20.807899 60.900421
1.060932 -20.937243 60.646149
1.0602421 -21.222307 60.538876
1.066757 -21.787106 60.925594
1.0686491 -21.935345 61.038967
0.69200498 -19.523125 62.447399
0.68985897 -19.757994 62.155582
0.68892503 -19.825726 62.025616
0.68815202 -19.899652 61.916595
0.68595302 -20.127417 61.613972
0.68502599 -20.19352 61.483673
0.68415803 -20.261705 61.360935
0.68196499 -20.484583 61.055241
0.68107301 -20.550274 60.928436
0.68027103 -20.619373 60.812973
2.2604661 -19.518682 62.482796
2.2533979 -19.754383 62.193024
2.2494969 -19.817478 62.04784
2.232384 -20.349255 61.3465
1.8684469 -19.593172 62.37373
1.865857 -19.663876 62.251629
1.8600301 -19.897722 61.96138
1.8566411 -19.957607 61.808464
1.854259 -20.029114 61.693642
1.848753 -20.26244 61.413597
1.845723 -20.324808 61.273731
1.843096 -20.391729 61.149036
1.83766 -20.621653 60.869663
1.834638 -20.682316 60.729511
1.479365 -19.828245 62.336594
1.477038 -19.893896 62.198914
1.474233 -20.053877 62.018913
1.470397 -20.195494 61.783131
1.467616 -20.252138 61.62228
1.45156 -21.188276 60.550365
1.457625 -21.588442 60.776512
1.442812 -6.0317578 9.2574511
1.426667 -5.9723339 9.1195078
1.426008 -5.984592 9.1054592
1.422514 -6.0140338 9.0513506
1.4214261 -6.0241289 9.0338345
1.417542 -6.0209899 8.9940796
1.419642 -6.0762901 8.9842634
1.416404 -6.0759568 8.9496527
1.414862 -6.0986352 8.9197292
1.765563 -6.0302968 8.5354509
1.415054 -6.1295571 8.9032192
1.420635 -6.1714931 8.938159
1.4199539 -6.1982188 8.9147615
1.3746949 -6.0341392 9.2548466
1.376308 -6.05755 9.259656
1.365505 -6.0356669 9.150321
1.360788 -6.0431399 9.0928974
1.364436 -6.076457 9.1148014
1.674515 -5.890811 8.4002447
1.364576 -6.1383381 9.0802593
1.6813329 -5.9449449 8.4249916
1.362938 -6.1453948 9.0574331
1.689545 -5.9903541 8.4667101
1.349674 -6.1240458 8.9192028
1.708411 -6.1053338 8.5559626
1.3519 -6.1503201 8.9288034
1.352092 -6.1663198 8.9213333
1.920061 -6.0626731 8.520793
1.597428 -5.8359399 8.3147354
1.605265 -5.8952608 8.3479939
1.228299 -5.9666638 9.1563244
1.246433 -6.0976291 9.3129253
1.228413 -6.0288181 9.1224957
1.22912 -6.0481009 9.1204062
1.227271 -6.083704 9.0762539
1.223124 -6.0756311 9.0277319
1.225269 -6.1029391 9.0392494
1.240501 -6.2352018 9.1572943
1.223232 -6.1520791 8.9840651
1.22376 -6.1702261 8.9800129
1.218321 -6.184176 8.9014282
1.219929 -6.2084589 8.9075031
-0.46676701 11.206948 30.788403
-0.467623 11.168004 30.83457
-0.46611199 10.928627 30.789318
-0.466398 10.88003 30.808771
-0.46404001 10.787811 30.7057
-0.473831 10.733478 31.182531
-0.66791701 11.097213 30.905748
-0.66679901 11.029994 30.874729
-0.662862 10.769192 30.768253
-0.66588998 10.755371 30.885441
-0.66529298 10.642685 30.880445
-0.66540903 10.539225 30.901388
-0.66575497 10.438448 30.929659
-0.66441602 10.369525 30.889711
-0.86230201 11.203851 30.738811
-0.86396199 11.169808 30.798098
-0.862014 10.993379 30.772869
-0.86367297 10.959022 30.831919
-0.86822999 10.954848 30.97562
-0.86260301 10.740276 30.841709
-0.86799902 10.743903 31.009867
-1.064806 10.908385 30.908705
-1.069506 10.846364 31.047371
-1.0650949 10.755988 30.94989
-1.062753 10.632427 30.914631
-1.066384 10.560401 31.026283
-1.060973 10.462484 30.903481
-0.067915 11.156707 30.752382
-0.067754999 11.091007 30.725239
-0.069564998 10.927292 30.888464
-0.069486998 10.865091 30.870251
-0.071055003 10.749376 31.015015
-0.071277998 10.699081 31.030424
-0.070672996 10.61657 30.953199
-0.26820901 11.037604 30.909584
-0.26971501 10.962438 31.010967
-0.269297 10.897297 30.9853
-0.26928899 10.786721 30.988243
-0.26875499 10.663755 30.955055
-0.27005601 10.638611 31.042072
1.708644 -5.4202442 16.368296
2.428793 -3.2863331 15.082325
2.4195189 -3.347841 15.004008
2.415333 -3.366735 14.970031
2.425663 -3.4298711 15.034353
2.417552 -3.5901129 14.944889
2.1882541 -5.08568 15.991214
2.1923029 -5.12152 16.018085
2.205796 -5.2328491 16.109831
2.204154 -5.2551699 16.088724
2.2107079 -5.2975922 16.136223
2.2205589 -5.4012752 16.196413
2.7397151 -3.73125 15.137394
2.745414 -4.0114322 15.116774
2.290796 -5.986412 16.661802
2.745441 -4.135005 15.089276
2.3866019 -4.1891961 15.31636
2.1533351 -5.7274809 16.461729
1.400074 -5.3292279 16.49621
2.152575 -5.7791138 16.439062
2.4212241 -4.4285221 15.528582
1.402486 -5.3934441 16.516859
2.45522 -4.723217 15.71983
2.454381 -4.7472758 15.707141
2.4818001 -4.9051242 15.879677
2.4722781 -4.9118052 15.803696
2.726202 -6.0752048 16.600273
2.619956 -5.868093 16.688095
1.7830991 -5.0746908 16.06905
2.43609 -5.4286909 16.203669
2.443584 -5.4722519 16.252605
2.4460521 -5.5044641 16.263474
2.458962 -5.6141548 16.337542
2.463944 -5.6524968 16.367102
2.468925 -5.6909451 16.396582
2.5278361 -6.185605 16.729612
2.5300541 -6.2184992 16.737301
2.5402451 -6.2989888 16.795818
2.5745759 -6.4418168 17.034054
2.558392 -6.4554868 16.894859
2.1687181 4.4555688 21.654755
2.1648009 4.4114919 21.619316
2.165061 4.2741718 21.658289
2.1621759 4.2328382 21.634207
2.1256771 3.5353479 21.365152
2.1245151 3.498842 21.35936
2.7173879 3.989506 20.580919
2.717809 3.924264 20.600115
1.999619 3.6681099 21.417316
1.991836 3.582402 21.337564
1.985963 3.5352919 21.272987
2.6890709 2.9896221 20.546848
2.687649 2.9218471 20.547365
2.6176319 3.7194691 20.919504
2.6035991 3.6290891 20.808874
2.602005 3.5598831 20.809479
2.607553 3.535507 20.866373
2.6153729 3.4810319 20.950729
2.604825 3.3974681 20.870556
2.597944 3.086123 20.869823
2.595633 3.0493431 20.855476
2.5983429 3.0196941 20.88624
2.5104511 3.7675951 21.111296
2.491029 3.363291 21.009956
2.494246 3.3012841 21.054798
2.536654 3.266824 21.477734
2.537796 3.199888 21.50268
2.540611 3.1352589 21.543043
2.440639 4.0024552 21.703979
2.3664689 3.656522 21.009832
2.3661311 3.6222651 21.014061
2.36233 3.5480821 20.991014
2.363198 3.4825139 21.014862
2.3652029 3.452395 21.042339
2.3735421 3.365694 21.148184
2.291147 3.7465391 21.608059
2.2744329 3.197932 21.542286
2.275414 3.1307321 21.567045
2.272706 3.091609 21.544867
-0.120231 14.01258 11.554962
-0.119383 13.922645 11.555824
-0.118959 13.877728 11.556087
-0.118852 13.820013 11.583663
-0.11938 13.789464 11.634363
-0.119661 13.774879 11.66034
-0.120298 13.748678 11.714969
-0.122388 13.78392 11.823397
-0.23305 13.886703 11.697933
-0.232517 13.844694 11.700635
-0.231793 13.796645 11.698023
-0.231326 13.707222 11.736729
-0.231169 13.677372 11.749472
-0.23158 13.665591 11.77793
-0.232199 13.610508 11.846178
-0.23375 13.634483 11.906363
-0.343941 13.9997 11.569237
-0.343171 13.956243 11.570975
-0.34240001 13.889301 11.591076
-0.34191999 13.829873 11.617277
-0.34286299 13.806855 11.674648
-0.34309599 13.789169 11.698045
-0.34545901 13.801937 11.786754
-0.34753001 13.806858 11.86918
-0.457551 13.917149 11.697839
-0.457654 13.896391 11.718804
-0.45590401 13.79014 11.743718
-0.45593601 13.767807 11.763166
-0.45418799 13.70772 11.749809
-0.45478001 13.651248 11.81694
-0.457802 13.691853 11.891589
-0.45883 13.690293 11.929368
-0.0044649998 13.992994 11.632135
-0.0043720002 13.955534 11.639024
-0.0046890001 13.945536 11.669115
0.49855599 2.419976 19.165245
0.49849799 2.3895199 19.173435
-0.214109 2.53966 19.281996
-0.21202099 2.4937079 19.183487
-0.33287001 2.587656 19.265627
0.381937 2.480186 19.292456
0.381006 2.43539 19.201752
1.089704 2.0860729 19.216633
-0.32943001 2.3477609 19.139812
1.08924 2.0540099 19.212412
-0.33345401 2.3363831 19.286535
1.088752 1.991135 19.21373
-0.45541301 2.8460281 19.359869
1.68871 2.3774099 19.200077
-0.44535199 2.558778 19.141125
-0.44988501 2.547081 19.278103
0.97709399 2.473557 19.199347
-0.446854 2.502224 19.187561
1.570652 2.4760611 19.187193
1.569847 2.4436049 19.181646
-0.56293303 2.363358 19.120411
0.85794199 2.465734 19.172857
-0.56411201 2.304704 19.152403
0.85929501 2.4107871 19.231016
0.029348999 2.529227 19.148178
1.451772 2.4335229 19.188726
0.027512001 2.5250371 19.338657
1.4514 2.4019301 19.189035
0.028844999 2.4711871 19.184664
1.454128 2.3771291 19.238735
0.73878998 2.555119 19.102554
0.73956603 2.529104 19.140638
-0.090448 2.4518969 19.238115
-0.090635002 2.38906 19.24268
1.91596 -0.54510099 19.393053
1.917387 -0.57667601 19.410572
1.917454 -0.60808903 19.412102
1.921206 -0.70303798 19.458344
1.924673 -0.73533398 19.499521
1.9269511 -0.767461 19.526699
1.930023 -0.86311603 19.564215
1.93417 -0.89613003 19.6131
1.810899 -0.158622 19.549267
1.936664 -0.96043098 19.643103
1.808133 -0.22200599 19.517817
1.942068 -1.026176 19.706642
2.6591561 -1.148823 19.589123
2.6587181 -1.212062 19.584373
2.3701479 0.21575899 19.124922
2.3691709 0.18460999 19.11776
2.6689169 -1.406509 19.664337
2.442121 -0.91731 19.817175
2.292213 -0.65151203 19.544346
1.5873131 -0.94120401 19.808582
1.587885 -0.97351301 19.817524
1.592944 -1.072184 19.894014
2.330838 -0.84951198 19.920168
1.5932831 -1.13679 19.899467
2.134711 -0.196265 19.146902
2.139713 -0.320048 19.203032
2.142132 -0.35113099 19.228859
2.749239 -0.59744698 19.317411
2.7615271 -0.62984103 19.414139
2.7596569 -0.66105598 19.399719
1.315966 -1.177681 20.063461
1.316507 -1.2105891 20.074038
1.316715 -1.2757339 20.079178
-0.24896801 19.076181 16.555202
0.518893 19.019611 16.53516
0.52191299 19.198452 16.746445
0.52461898 19.357185 16.941126
-0.41348001 19.129351 17.038952
-0.413059 19.080921 17.050659
-0.41474801 19.027496 17.168638
-0.41389599 18.965689 17.167925
-0.56144702 19.198761 16.644943
-0.57547802 19.452686 17.033699
-0.57447702 19.39369 17.036751
-0.57234597 19.306396 17.014366
-0.572429 19.207207 17.091787
-0.57118601 19.142406 17.088844
-0.57186598 19.02397 17.2038
-0.57163203 18.984289 17.223265
-0.57241201 18.969593 17.265675
-0.57445598 18.917767 17.386175
-0.57607102 18.923203 17.447653
-0.57691097 18.909517 17.491436
1.1290801 18.953156 16.468086
-0.58033401 18.889811 17.643478
-0.71117902 18.90288 16.690725
1.135468 19.06599 16.62104
-0.583327 18.927971 17.736801
-0.71983403 19.051649 16.87797
1.142603 19.172226 16.823574
-0.58633202 18.931307 17.855059
-0.72474402 19.089062 17.021536
0.059641998 18.995018 16.460779
0.062199 19.398954 16.980152
0.99113297 19.125154 16.682299
-0.65747499 13.623325 29.991417
-0.65836 13.585284 30.035036
-0.64931899 13.388068 29.729248
-0.45671299 12.4125 30.13756
-0.64701498 13.19606 29.684008
-0.45696801 12.364255 30.157457
-0.646653 13.138721 29.683239
-0.64718801 13.043725 29.725344
-0.45800501 12.171068 30.236395
-0.64770401 12.948494 29.767048
-0.64796197 12.900828 29.787788
-0.84628302 13.684481 29.621998
-0.863805 12.725111 30.438763
-1.030895 13.262407 29.377207
-0.86048597 12.581372 30.368807
-1.049518 13.366075 29.856567
-0.855757 12.472853 30.245016
-1.041474 13.227906 29.677549
-0.85359901 12.344069 30.207418
-0.052606001 13.202758 29.435308
-0.052925002 13.158892 29.463755
-0.053576 13.010821 29.512253
-0.053394001 12.941709 29.483719
-0.053436998 12.884005 29.480665
-0.25015 13.202351 29.58153
-0.25077 13.110821 29.631058
-0.25085601 13.058475 29.641104
-0.25160301 12.970061 29.697613
-0.25294799 12.898981 29.794056
-0.25341499 12.802024 29.83176
-0.253218 12.741542 29.822918
-0.74180001 -2.2175269 43.181599
-0.743756 -2.289851 43.258415
-0.74052602 -2.487509 43.068871
-0.74031401 -2.894711 42.976463
-0.73965102 -2.960741 42.9324
-0.741759 -3.170007 42.985283
-1.00867 -2.400403 43.400604
-0.74759001 -3.935504 43.088657
-1.0031331 -2.7329381 43.143215
-1.000713 -3.340143 42.94696
-1.002499 -3.480217 42.985134
-1.002369 -3.547806 42.968105
-1.2664289 -2.0693121 43.343227
-1.266645 -2.1383369 43.340382
-1.26686 -2.2073569 43.337425
-1.259481 -2.4029469 43.088421
-1.259693 -2.4715719 43.085049
-1.259985 -2.8813491 43.03273
-1.259505 -3.0846939 42.986237
-1.263144 -3.159734 43.083527
-1.268025 -3.8519249 43.11499
-1.520071 -3.371017 42.968224
-1.518847 -3.436945 42.927448
-1.524408 -3.6511779 43.035812
-0.219056 -2.8760929 43.026939
-0.21894699 -2.9427121 42.990891
-0.220511 -3.153909 43.069859
-0.47960299 -3.081655 43.080971
-0.47961199 -3.2169621 43.044182
-0.48091999 -3.2901499 43.109383
-0.476789 6.5840068 24.338638
-0.47393 6.269875 24.264061
-0.48131999 6.0127888 24.561636
-0.48297599 5.9045558 24.631865
-0.63124198 6.8462858 24.328009
-0.632523 6.8165379 24.371841
-0.62721997 6.6501679 24.231979
-0.629996 6.6327748 24.319832
-0.62932497 6.5866871 24.305634
-0.63286102 6.4937258 24.426535
-0.630952 6.4376631 24.375423
-0.63359702 6.3774862 24.464094
-0.62664598 6.2414122 24.268496
-0.64695501 6.3597369 24.876007
-0.62626499 6.1173191 24.271996
-0.63798201 5.9213939 24.653332
-0.63886499 5.8460069 24.688343
-0.78074902 6.4616532 24.264345
-0.78465301 6.3675289 24.380732
-0.78262901 6.273159 24.341768
-0.785882 6.2545671 24.429293
-0.78880399 6.1524 24.519882
-0.78635401 6.0959048 24.464191
-0.78698701 6.0595531 24.485798
-0.79785198 6.0070891 24.775166
-0.77603698 5.8285661 24.232588
-0.77604902 5.7886171 24.238281
2.6093359 2.5347631 18.894667
2.608012 2.5027671 18.889263
2.5824151 2.231595 18.72238
2.5854449 2.2046709 18.751913
2.583158 2.172029 18.738096
2.602134 2.1008871 18.907217
2.5713429 2.039366 18.660723
2.5662739 1.974313 18.628651
2.560883 1.819182 18.606539
2.5570459 1.755717 18.583483
2.5606771 1.699006 18.621534
2.547575 1.538282 18.533976
2.5571251 1.515921 18.615881
2.5896139 1.450318 18.8932
2.4443679 2.02952 18.568804
2.4382839 1.9930609 18.521177
2.437942 1.903194 18.531864
2.448633 1.884189 18.628023
2.449904 1.855425 18.643267
2.287607 2.5055139 19.187407
2.284256 2.4391999 19.166578
2.28213 2.3747959 19.157461
2.2799389 2.3410759 19.141932
2.70486 2.541487 18.667124
2.2489121 -8.5746193 6.6170778
2.239527 -8.6463604 6.4525552
2.150959 -8.3739357 6.0080872
2.083472 -8.386939 6.2506099
2.0889289 -8.4646196 6.2075791
2.0859909 -8.5042048 6.1322608
2.080368 -8.530899 6.0467629
1.7995059 -8.6177444 6.637969
1.989628 -8.3633184 6.306581
2.000536 -8.4793749 6.2740741
1.990751 -8.4860468 6.1709118
1.759401 -8.7848024 6.7367368
1.979376 -8.4839582 6.0618348
1.978829 -8.5330038 5.9952521
1.979241 -8.5861568 5.9319859
1.936601 -8.5608749 6.5191178
1.971794 -8.6502333 5.7729859
1.918942 -8.5281286 6.3783579
1.9789031 -8.7348051 5.7337122
1.9184231 -8.5797386 6.3113418
1.661943 -8.6367159 6.5608301
1.6538301 -8.6013708 6.507719
1.6520751 -8.6464291 6.4337158
0.98075598 2.483289 1.9528019
0.97074002 2.420388 1.943433
1.164079 2.4980919 1.984326
1.374989 2.4739001 1.9781801
0.94335598 2.452841 1.9619
0.91004503 2.469053 1.947242
1.327983 2.437196 1.954616
0.923657 2.511476 2.023885
0.75038803 2.457051 1.934719
1.073261 2.4231369 1.917684
1.08017 2.4290259 1.960668
0.88208699 2.5042889 1.966662
0.88409299 2.4951611 1.9974869
0.71226001 2.395757 1.827049
0.71301103 2.3929219 1.8393919
0.71267599 2.3839681 1.846433
0.71451598 2.3870139 1.863984
0.712035 2.3698421 1.856391
0.71360397 2.371242 1.872527
0.71245098 2.357836 1.8756469
0.71269101 2.3555319 1.881085
1.26467 2.467675 1.952988
1.5564719 -1.243583 15.182018
1.556814 -1.293346 15.185047
1.558267 -1.319216 15.201363
1.560572 -1.395456 15.226306
1.5581239 -1.418359 15.196728
2.415478 -0.35029301 14.548031
2.412807 -0.373997 14.530123
2.4464779 -0.63929498 14.764404
2.0030329 -1.336832 14.939058
