# .PCD v.7 - Point Cloud Data file format
VERSION .7
FIELDS x y z
SIZE 4 4 4
TYPE F F F
COUNT 1 1 1
WIDTH 1658
HEIGHT 1
POINTS 1658
DATA ascii
2.159958 -2.992017 19.901304
2.119900 -2.359344 20.965146
1.216101 -1.210079 21.118020
1.111276 -0.448925 21.796009
2.000887 -1.555262 21.195729
1.737181 -0.677082 19.519240
1.000211 0.428944 22.494855
0.873813 1.195813 22.906747
1.820943 0.064555 22.467822
1.660859 0.925049 22.900529
-0.062133 -2.694227 20.324811
-0.190021 -2.158163 20.478709
0.683178 -3.044491 19.986048
0.557481 -2.218974 20.053549
-0.329911 -1.183149 21.055071
-0.482796 -0.636571 21.824648
0.442699 -1.504243 21.039053
0.314316 -0.762741 21.444433
2.754482 -2.558072 18.789355
2.744128 -2.016683 19.743442
0.181105 0.138166 21.892697
0.036224 0.888431 23.266995
2.687405 -1.218114 20.395814
1.683636 -0.181465 12.624454
2.161888 -0.388681 12.615463
2.118441 0.347147 17.495203
2.038737 1.010244 17.782333
2.773369 0.097242 17.505232
2.717067 0.697974 17.902795
1.446883 -2.817529 20.418153
1.325494 -2.482523 20.565656
2.195492 -3.085070 20.267321
2.114855 -2.385824 20.903487
1.214955 -1.242047 21.089599
1.108595 -0.481529 21.726783
2.007337 -1.596094 21.270102
1.733594 -0.706075 19.469756
1.002005 0.393067 22.544882
0.951929 1.262870 25.652942
1.805624 0.031435 22.247861
1.648316 0.883053 22.697824
-0.060679 -2.710839 20.211143
-0.187004 -2.172531 20.317819
0.680067 -3.053909 19.844559
0.556014 -2.240155 19.960136
-0.330892 -1.219901 21.094480
-0.482237 -0.670848 21.807058
0.442388 -1.535031 21.002205
0.314808 -0.801406 21.530515
2.821444 1.150151 12.222861
1.975649 -0.009814 3.655890
2.061840 0.187893 3.997259
1.908389 0.391200 3.119840
1.883683 -0.476885 4.867650
1.561811 -0.044706 3.965150
1.500555 0.170122 3.912909
1.400866 -0.812551 5.256811
1.378141 -0.570844 5.479465
1.701264 -0.917448 5.107555
1.669675 -0.654963 5.258285
1.361634 -0.204855 5.758145
2.787845 -0.162478 14.936875
2.865972 -0.827646 10.792977
2.755917 -2.650238 18.785207
2.743797 -2.111372 19.728093
0.181090 0.030187 22.097431
0.036157 0.777613 23.313259
2.694392 -1.320877 20.445586
1.682869 -0.242749 12.613843
2.162594 -0.450463 12.615766
2.137800 0.261919 17.675955
2.040921 0.925019 17.805111
2.775235 0.012406 17.515693
2.672508 0.605459 17.575290
1.449139 -2.921349 20.438489
1.334783 -2.604919 20.724236
2.195076 -3.181674 20.244988
2.083019 -2.439940 20.530736
1.215701 -1.344454 21.093795
1.106459 -0.583771 21.664698
1.993426 -1.682522 21.089987
1.724509 -0.793381 19.343070
1.103152 0.279226 25.475078
0.883915 1.060438 23.255229
1.795632 -0.072945 22.100471
1.691501 0.788847 23.392574
-0.062234 -2.828239 20.328960
-0.186352 -2.267177 20.279898
0.674625 -3.108305 19.587849
0.553741 -2.318022 19.804880
-0.324954 -1.303688 20.855592
-0.489421 -0.786998 22.041624
0.440153 -1.615857 20.772014
0.311857 -0.870331 20.879777
2.753894 -2.677985 18.764748
2.745328 -2.144465 19.735980
0.181609 0.000582 21.704907
0.035520 0.742264 23.413844
2.690695 -1.351136 20.411213
1.681794 -0.262834 12.602925
2.147079 -0.464989 12.509766
2.591600 0.211185 21.957721
2.040784 0.896296 17.803961
2.771631 -0.015306 17.489359
2.649114 0.574284 17.403236
1.440777 -2.931839 20.291267
1.340919 -2.653932 20.834287
2.193809 -3.211810 20.225631
2.073752 -2.459172 20.421587
1.213996 -1.375277 21.053225
1.107657 -0.619615 21.691118
1.996598 -1.719912 21.124427
1.732011 -0.829868 19.438774
1.001279 0.248718 22.514669
0.888996 1.028762 23.432120
1.795702 -0.108348 22.099737
1.675863 0.746363 23.139730
-0.066470 -2.911767 20.655996
-0.187387 -2.306848 20.333272
0.672702 -3.125100 19.497631
0.554568 -2.355715 19.846237
-0.323209 -1.331830 20.785159
-0.490586 -0.824243 22.079709
0.442018 -1.664546 20.934137
0.311558 -0.899725 20.803910
2.757817 -2.712787 18.789306
2.743653 -2.174482 19.718198
0.181671 -0.034289 21.710294
0.033093 0.711088 23.764330
2.690284 -1.383564 20.404511
1.681165 -0.283057 12.595947
2.143302 -0.483817 12.482752
2.591882 0.175988 21.959419
2.016398 0.859722 17.560101
2.770561 -0.043305 17.480800
2.646477 0.545957 17.383707
1.447485 -2.982222 20.398444
1.334781 -2.671106 20.712786
2.187847 -3.233425 20.157177
2.065715 -2.479900 20.326254
1.208577 -1.399548 20.932957
1.100121 -0.646492 21.501846
1.988789 -1.744599 21.025870
1.730701 -0.860064 19.418935
1.111579 0.196617 25.714504
0.888338 0.990492 23.407140
1.791154 -0.142374 22.033123
1.667401 0.706799 23.002570
-0.064533 -2.922227 20.504565
-0.186998 -2.337216 20.311180
0.679707 -3.208658 19.791502
0.552490 -2.371191 19.717009
-0.322952 -1.364518 20.774483
-0.480546 -0.843314 21.754364
0.439396 -1.674926 20.686017
0.311717 -0.934216 20.821850
2.819339 1.049901 12.216895
2.026604 -0.053252 3.778450
2.097762 0.150523 4.086919
2.127673 0.717268 4.410070
1.901129 0.363075 3.103513
1.877631 0.537486 3.132972
1.880931 -0.517141 4.851401
1.872296 -0.179288 5.050000
1.417551 0.145627 3.608613
2.107709 -0.262244 4.768160
1.789394 0.038277 3.994419
1.395328 -0.851271 5.218552
1.376793 -0.616133 5.464172
2.898573 -2.057797 9.834804
1.659610 -0.692497 5.207911
1.355981 -0.250396 5.720138
2.414730 -0.199676 12.629834
2.910878 -0.937527 10.979051
1.474637 -0.034193 4.942130
2.758474 -2.804077 18.778545
2.746771 -2.272500 19.729679
0.181979 -0.137011 21.628255
0.036919 0.590377 23.265822
2.694688 -1.484933 20.431701
1.679951 -0.343958 12.580892
2.146941 -0.546258 12.502352
2.594214 0.070134 21.978214
2.011223 0.773352 17.508574
2.772707 -0.128172 17.492578
2.643156 0.461628 17.358648
1.419129 -3.001851 19.901707
1.341237 -2.787869 20.816913
2.199634 -3.352086 20.261590
2.071502 -2.586458 20.375826
1.218236 -1.517642 21.127503
1.105826 -0.756264 21.632638
2.017818 -1.881102 21.364775
1.725107 -0.949010 19.337360
0.998689 0.105271 22.429586
0.884725 0.874639 23.273986
1.778496 -0.243629 21.847049
1.641526 0.590524 22.582826
-0.047787 -2.815506 19.203324
-0.179866 -2.386862 19.929480
0.697392 -3.439217 20.528264
0.551090 -2.453794 19.612806
-0.324303 -1.469701 20.827933
-0.474804 -0.938012 21.568858
0.439028 -1.769543 20.626484
0.312154 -1.037498 20.865465
2.760587 -2.836835 18.789175
2.744602 -2.301918 19.707769
0.182054 -0.171528 21.621427
0.037525 0.552287 23.192141
2.689582 -1.513874 20.385220
1.681994 -0.365278 12.597611
2.145511 -0.565939 12.491014
2.146375 0.090125 17.751731
2.011084 0.745110 17.507185
2.773888 -0.156553 17.499676
2.644293 0.433740 17.366683
1.817941 -4.143556 26.619742
1.912681 -4.387113 31.573591
2.177708 -3.343522 20.026387
2.070146 -2.616958 20.355356
1.218574 -1.552032 21.130472
1.102736 -0.787170 21.552987
2.003615 -1.897623 21.188693
1.725012 -0.979944 19.333262
0.993252 0.071162 22.269239
0.887817 0.839898 23.380670
2.120378 -0.411050 26.716271
1.637393 0.553544 22.515269
-0.046824 -2.834873 19.127214
-0.180490 -2.423555 19.960802
0.676275 -3.307595 19.613261
0.549923 -2.475473 19.537019
-0.325582 -1.507716 20.878797
-0.473570 -0.970418 21.528851
0.436031 -1.774484 20.344523
0.312195 -1.070699 20.859229
2.760890 -2.867363 18.786055
2.745146 -2.334073 19.707468
0.182078 -0.207138 21.660531
0.037660 0.515096 23.184393
2.691047 -1.547653 20.394090
1.683369 -0.386351 12.608339
2.164625 -0.594780 12.617824
2.604473 -0.001695 22.072590
2.006970 0.715898 17.465961
2.772536 -0.184450 17.488916
2.645161 0.405813 17.372693
1.813680 -4.173912 26.539737
1.913807 -4.440306 31.585825
2.177002 -3.374248 20.012676
2.077231 -2.660705 20.429540
1.212967 -1.575149 21.006024
1.102154 -0.820913 21.535165
1.995968 -1.921871 21.091913
1.726740 -1.012421 19.352996
0.990844 0.036423 22.196782
0.883007 0.798694 23.209482
1.825386 -0.332796 22.511075
1.638582 0.517676 22.533483
-0.046931 -2.867521 19.133991
-0.180814 -2.458233 19.976202
0.673021 -3.313214 19.465830
0.550445 -2.510696 19.560245
-0.317154 -1.511711 20.539207
-0.470061 -0.998402 21.414956
0.435170 -1.798547 20.257565
0.311345 -1.092132 20.671323
2.819622 0.930453 12.222879
2.040152 -0.096369 3.807645
2.062732 0.111090 3.995516
1.743571 0.413767 3.287713
2.122206 0.670249 4.398332
1.931320 0.329624 3.171041
1.869743 0.502579 3.116241
1.782907 -0.514753 4.513194
1.875125 -0.232054 5.054304
2.102609 -0.309551 4.747095
1.795159 -0.004643 4.008298
1.583443 0.316329 3.504131
1.394283 -0.903357 5.201193
1.371546 -0.667134 5.425627
2.902044 -2.157845 9.824808
1.657388 -0.744025 5.188226
1.346965 -0.303036 5.661238
2.879604 -1.028710 10.828869
1.520692 -0.099026 5.148829
2.758184 -2.954328 18.749145
2.748015 -2.431963 19.716204
0.182085 -0.316683 21.843581
0.037674 0.403909 23.216909
2.696154 -1.649815 20.426411
1.687054 -0.449636 12.636459
2.780827 -0.951562 16.755245
2.589517 -0.105083 21.927486
2.006960 0.631417 17.465478
2.084799 -0.108172 12.651514
2.649118 0.321873 17.400477
1.809431 -4.288241 26.443318
1.327013 -2.913362 20.519018
2.173762 -3.464111 19.959634
2.056635 -2.725277 20.182454
1.228945 -1.707813 21.334862
1.109314 -0.933868 21.700996
1.972702 -1.992457 20.797591
1.726461 -1.105317 19.340370
0.990448 -0.069977 22.177057
0.877680 0.683801 23.015436
1.613229 -0.339727 19.482722
1.696270 0.414706 23.460208
-0.048573 -2.982921 19.256667
-0.182192 -2.565681 20.043952
0.674807 -3.420281 19.519084
0.553608 -2.630298 19.722693
-0.313806 -1.598810 20.402784
-0.464388 -1.090215 21.230799
0.437088 -1.913170 20.406280
0.312083 -1.199392 20.776019
2.760555 -2.987501 18.761472
2.746339 -2.461755 19.697995
0.182680 -0.337234 21.368689
0.036596 0.367376 23.378922
2.697384 -1.683543 20.433083
1.694444 -0.473897 12.700628
2.776767 -0.976559 16.725509
1.613947 0.052349 12.724275
2.005827 0.603076 17.453917
2.099482 -0.132315 12.753636
2.047848 0.289571 12.981091
1.805987 -4.320246 26.376934
1.333151 -2.963856 20.628321
2.155964 -3.461335 19.767643
2.057916 -2.759692 20.191350
1.222685 -1.729167 21.196316
1.107194 -0.965615 21.645040
1.974397 -2.028006 20.813652
1.729708 -1.139362 19.379788
0.987693 -0.103927 22.094392
0.874174 0.644977 22.889958
1.778495 -0.453494 21.834337
1.636169 0.373086 22.490111
-0.053645 -3.081003 19.647685
-0.180008 -2.582025 19.926431
0.679113 -3.486178 19.695807
0.552811 -2.654758 19.668475
-0.313898 -1.632094 20.405632
-0.458543 -1.112137 21.040953
0.436684 -1.941354 20.360909
0.311760 -1.227180 20.695717
2.758789 -3.015280 18.742481
2.752801 -2.500407 19.744629
0.182891 -0.367315 21.237611
0.017205 0.336083 26.110807
2.700022 -1.718458 20.451560
1.696264 -0.495458 12.715147
2.781512 -1.005871 16.754924
1.607453 0.033066 12.662110
2.004495 0.574739 17.440320
2.080093 -0.148061 12.616283
2.682132 0.265679 17.641982
1.455338 -3.330864 20.467230
1.663009 -3.959030 26.824196
2.148120 -3.477550 19.679409
2.056559 -2.789754 20.170629
1.205554 -1.727628 20.825091
1.105316 -0.997535 21.595023
2.016589 -2.118554 21.318915
1.730980 -1.171649 19.393292
0.980941 -0.135216 21.895771
0.869358 0.605895 22.718440
1.776603 -0.487457 21.805091
1.639586 0.337211 22.543973
-0.046954 -3.024523 19.127749
-0.177412 -2.594921 19.787130
0.675811 -3.490441 19.546339
0.554957 -2.704376 19.786351
-0.313247 -1.662541 20.378571
-0.452885 -1.133862 20.857075
0.435756 -1.964127 20.267795
0.311338 -1.253271 20.595433
2.824922 0.832032 12.252404
2.034999 0.079416 3.922734
1.745784 0.384564 3.293599
2.122998 0.632355 4.402459
1.928942 0.301294 3.165183
1.870608 0.474735 3.119057
1.860779 -0.597171 4.767346
1.857167 -0.268300 4.986345
1.576457 0.047147 4.182267
2.092305 -0.346381 4.711626
1.757344 -0.031557 3.891690
1.453092 0.370324 3.896080
1.593340 0.285018 3.534096
1.393597 -0.946762 5.187241
1.368416 -0.710239 5.399890
2.907882 -2.244092 9.827276
1.654228 -0.785683 5.165967
1.348065 -0.351588 5.661701
1.321757 -0.064199 5.881948
2.868674 -1.111037 10.769205
2.801231 -0.580837 11.008900
2.758924 -3.105713 18.726377
2.752462 -2.595011 19.727011
0.183112 -0.469052 21.221995
0.021231 0.212237 25.582461
2.699728 -1.816555 20.437599
1.701731 -0.560501 12.758605
1.163660 -0.226269 5.877717
1.606738 -0.028503 12.652502
2.003687 0.490299 17.431210
2.078246 -0.209068 12.599921
2.772388 0.176876 18.303246
1.428135 -3.346801 19.989792
1.663208 -4.087528 26.803565
2.148256 -3.572384 19.661121
2.063924 -2.899289 20.236318
1.200528 -1.816588 20.703739
1.100498 -1.093683 21.464758
1.985612 -2.177091 20.930865
1.869477 -1.405613 21.195174
0.708187 -0.039127 13.980494
0.866581 0.495709 22.613428
1.137583 -0.216048 12.701060
1.640439 0.228821 22.553621
-0.049131 -3.148255 19.290858
-0.177446 -2.691680 19.782918
0.688371 -3.688671 20.059780
0.561642 -2.857667 20.153289
-0.313814 -1.763638 20.398698
-0.455954 -1.241714 20.955534
0.439030 -2.094252 20.538765
0.311642 -1.354265 20.611566
2.757674 -3.134056 18.711118
2.747578 -2.621041 19.683021
0.183171 -0.503297 21.226639
0.046551 0.185730 22.034293
2.697437 -1.847292 20.414367
1.693526 -0.576466 12.683730
1.166320 -0.237611 5.894510
1.607834 -0.049346 12.661788
2.005138 0.462374 17.445295
2.079694 -0.229967 12.608873
2.773797 0.147364 18.312813
1.434025 -3.396687 20.082144
1.672615 -4.158674 26.971993
2.149803 -3.607008 19.670522
2.071889 -2.945490 20.319736
1.200678 -1.849998 20.702255
1.097728 -1.123615 21.392622
1.990586 -2.217703 20.986205
1.854944 -1.424476 21.001498
0.988261 -0.281095 22.096034
0.962859 0.486230 25.992113
1.130061 -0.232058 12.592478
1.632710 0.193163 22.427602
-0.049264 -3.181678 19.299082
-0.179081 -2.736614 19.867090
0.680758 -3.656224 19.725772
0.558983 -2.865723 19.990059
-0.313560 -1.795545 20.387358
-0.455340 -1.274006 20.935025
0.443130 -2.170154 20.902335
0.311878 -1.390153 20.644712
2.759057 -3.196071 18.709847
2.744968 -2.681146 19.652004
0.183191 -0.575965 21.333792
0.046123 0.114493 22.115699
2.697085 -1.912448 20.403429
1.693161 -0.617479 12.676813
1.165184 -0.256893 5.884776
1.610029 -0.091196 12.680373
2.006060 0.406178 17.453543
2.080342 -0.271202 12.610965
2.775004 0.088297 18.320028
1.410042 -3.386576 19.665827
1.665085 -4.221125 26.813859
2.146324 -3.662864 19.620904
2.053873 -2.978703 20.106619
1.198846 -1.912039 20.653546
1.111139 -1.214225 21.714907
2.001691 -2.301224 21.110623
1.851727 -1.488291 20.952116
0.982963 -0.347185 21.936136
0.859758 0.385841 22.365953
1.128605 -0.272038 12.568691
1.640795 0.120392 22.554774
-0.047645 -3.222366 19.169849
-0.178417 -2.795946 19.827672
0.676858 -3.685399 19.542559
0.559221 -2.931177 19.987790
-0.311661 -1.853486 20.308968
-0.452936 -1.335611 20.856103
0.443116 -2.235807 20.882431
0.312546 -1.465429 20.748805
2.827100 0.732616 12.265479
2.047507 0.043470 3.951963
2.065389 0.360988 4.128576
2.101456 0.590521 4.346438
1.915982 0.273416 3.135356
1.918514 0.451948 3.229751
1.825883 -0.617579 4.642444
1.848498 -0.307330 4.950642
1.576530 0.010844 4.179644
2.088484 -0.385290 4.694642
1.619823 0.252261 3.615191
1.397019 -0.994947 5.194001
1.365285 -0.753007 5.373838
2.903198 -2.319858 9.787652
1.655214 -0.830441 5.160589
1.343757 -0.396469 5.630456
1.317054 -0.112025 5.848845
1.625974 -0.226502 5.621934
2.756816 -3.252938 18.680968
2.745559 -2.744847 19.646210
0.183362 -0.642740 21.294733
0.047204 0.045018 21.982781
2.695317 -1.976179 20.380328
2.433436 -1.127336 19.259605
1.165513 -0.276902 5.884724
1.601676 -0.129608 12.599330
2.015127 0.350332 17.543095
2.084927 -0.313740 12.640502
2.773774 0.029488 18.309111
1.410132 -3.449714 19.653899
1.663215 -4.300438 26.761847
2.150731 -3.734932 19.652993
2.046053 -3.028951 20.007461
1.194309 -1.967437 20.546947
1.099201 -1.262913 21.412776
2.010821 -2.382517 21.210877
1.864616 -1.569763 21.113049
0.984893 -0.419198 21.985692
0.880864 0.315400 23.101572
1.128123 -0.312490 12.558618
1.651596 0.046448 22.725513
-0.045015 -3.247731 18.961768
-0.178769 -2.863243 19.841324
0.679879 -3.773698 19.655084
0.552982 -2.936246 19.608046
-0.312935 -1.924655 20.357524
-0.448637 -1.391807 20.715110
0.434711 -2.207575 20.102012
0.314322 -1.560509 21.077697
2.757892 -3.284443 18.683031
2.743387 -2.773718 19.623615
0.183509 -0.673361 21.217188
0.046707 0.008854 22.062228
2.694199 -2.007778 20.366732
2.638043 -1.290652 21.076975
1.164064 -0.285948 5.873837
1.600662 -0.149718 12.588580
2.018766 0.322175 17.578851
2.091444 -0.336583 12.684882
2.774104 0.000005 18.310519
1.412865 -3.489813 19.692980
1.660443 -4.334143 26.701297
2.159416 -3.784760 19.736257
2.060528 -3.087347 20.163317
1.193435 -1.998195 20.523381
1.093675 -1.287340 21.272642
1.958724 -2.336885 20.577677
1.858442 -1.596519 21.028507
0.977237 -0.446613 21.760684
0.895009 0.278452 23.595247
1.131244 -0.335124 12.601354
1.641758 0.011899 22.565282
-0.044387 -3.269794 18.910829
-0.176626 -2.877806 19.725572
0.680564 -3.810884 19.675959
0.549539 -2.934867 19.399484
-0.313028 -1.957962 20.359849
-0.449439 -1.427263 20.740207
0.435114 -2.243795 20.129679
0.315311 -1.610562 21.261923
2.755653 -3.341214 18.654005
2.744722 -2.838331 19.623524
0.183892 -0.730199 20.986178
0.047484 -0.060558 21.973093
2.692202 -2.071162 20.341480
2.636167 -1.356964 21.053895
1.162340 -0.304743 5.860015
1.600114 -0.190466 12.581009
2.027246 0.265447 17.662280
2.079135 -0.373201 12.595684
2.773151 -0.058834 18.301418
1.420206 -3.576519 19.802395
1.323148 -3.326153 20.363154
2.172281 -3.875620 19.855778
2.083326 -3.194269 20.405957
1.197458 -2.073606 20.599296
1.091458 -1.351262 21.209628
1.959330 -2.403738 20.575083
1.858872 -1.664380 21.026281
0.976417 -0.515347 21.730137
0.858258 0.206889 22.299466
1.608430 -0.742242 19.384568
1.622090 -0.055757 22.244780
-0.045592 -3.349544 18.999614
-0.176226 -2.938665 19.699570
0.682121 -3.887186 19.725450
0.549400 -2.994951 19.375285
-0.311725 -2.017949 20.304851
-0.451955 -1.500984 20.820219
0.436825 -2.326998 20.266269
0.313173 -1.637723 20.799538
2.827325 0.632747 12.267968
2.091921 0.325014 4.197520
2.093869 0.551719 4.327483
1.920928 0.245063 3.145492
1.913001 0.422600 3.217499
1.860904 -0.678887 4.751605
1.846933 -0.348952 4.939476
1.534260 -0.015415 4.022762
2.084013 -0.423706 4.675489
1.829982 0.203040 4.264897
2.872591 -2.864518 12.726430
1.361796 -0.795078 5.345536
2.908555 -2.405670 9.786874
1.659424 -0.877919 5.168196
1.341475 -0.442395 5.610614
1.313629 -0.159907 5.823256
1.645739 -0.519350 5.416882
1.613720 -0.269002 5.560671
2.759616 -3.406886 18.671411
2.738156 -2.892980 19.560380
0.183494 -0.823289 21.473921
0.044409 -0.139207 22.425528
2.682684 -2.126861 20.252806
2.632723 -1.421982 21.016628
1.161788 -0.324129 5.853903
1.598507 -0.230673 12.563262
2.480308 0.191383 22.193221
2.073298 -0.411779 12.551741
1.989125 0.003494 12.540343
1.419126 -3.636248 19.770274
1.309064 -3.344710 20.085872
2.140051 -3.868936 19.507146
2.109815 -3.309673 20.689260
1.210866 -2.172940 20.875238
1.086720 -1.409905 21.084554
1.949267 -2.453448 20.443731
1.855797 -1.727911 20.978058
0.976275 -0.584654 21.719236
0.855499 0.136097 22.196864
1.612470 -0.807696 19.436721
1.633757 -0.130324 22.428918
-0.046472 -3.424915 19.062442
-0.194146 -3.156589 20.640395
0.662427 -3.771750 18.868921
0.552848 -3.089978 19.559828
-0.313988 -2.094156 20.392561
-0.448888 -1.559455 20.718625
0.434980 -2.368853 20.081198
0.312942 -1.697928 20.723410
2.758669 -3.465441 18.651747
2.738256 -2.955874 19.550107
0.184045 -0.870609 21.082761
0.045582 -0.208013 22.279950
2.681154 -2.190255 20.231136
2.626388 -1.484735 20.953526
1.163293 -0.344914 5.861625
1.599224 -0.271855 12.567358
2.482255 0.120079 22.210539
2.071690 -0.451942 12.537446
1.981389 -0.035957 12.481758
1.413137 -3.679503 19.655852
1.298553 -3.373620 19.875635
2.159303 -3.974040 19.692436
2.093025 -3.343557 20.489212
1.208844 -2.234458 20.821611
1.081178 -1.466224 20.939522
1.948886 -2.518303 20.428916
1.853639 -1.792377 20.941671
0.974348 -0.651666 21.656313
0.860841 0.063221 22.378028
1.606710 -0.865158 19.349368
1.617180 -0.196589 22.157898
-0.044605 -3.459356 18.913131
-0.192398 -3.208445 20.542510
0.657876 -3.789933 18.658482
0.554200 -3.165334 19.621879
-0.326128 -2.218384 20.877171
-0.458776 -1.655109 21.037099
0.434739 -2.429094 20.040873
0.312391 -1.751410 20.581532
2.761297 -3.499320 18.665127
2.741510 -2.991427 19.570305
0.184321 -0.892977 20.881104
0.045497 -0.244196 22.301000
2.678625 -2.220053 20.205388
2.629568 -1.520667 20.978298
1.167128 -0.357352 5.886074
1.598420 -0.291900 12.558374
2.478348 0.084834 22.170303
2.069475 -0.471348 12.520314
1.992759 -0.058394 12.564296
1.411660 -3.705952 19.624004
1.292612 -3.385247 19.757694
2.133039 -3.947051 19.413040
2.035004 -3.263527 19.835663
1.214387 -2.282123 20.934486
1.109674 -1.557820 21.635620
1.951563 -2.555436 20.455931
1.846702 -1.816994 20.846939
0.976485 -0.689120 21.714571
0.856125 0.029221 22.209586
1.608449 -0.897718 19.371286
1.601635 -0.226423 21.905516
-0.043674 -3.476207 18.838409
-0.188464 -3.207044 20.331746
0.660899 -3.847477 18.778923
0.550380 -3.157996 19.391655
-0.328938 -2.265775 20.988197
-0.463200 -1.702115 21.179210
0.432620 -2.434560 19.840260
0.312428 -1.784030 20.574183
2.826768 0.532779 12.265747
2.091866 0.513963 4.323189
1.897919 0.392756 3.183012
2.907746 -1.591068 6.447757
1.841540 -0.388663 4.914637
1.562381 -0.057910 4.121596
2.101053 -0.230557 4.908953
1.785829 0.170803 4.126529
2.875709 -2.971720 12.715888
1.357949 -0.836406 5.314998
2.966513 -2.548290 9.991346
1.661790 -0.923973 5.167785
1.333445 -0.483582 5.557214
1.306361 -0.205594 5.773682
1.641826 -0.562704 5.392410
1.613381 -0.315941 5.553570
2.760086 -3.557354 18.643122
2.740370 -3.052657 19.549820
0.184640 -0.948843 20.693348
0.047222 -0.309786 22.075024
2.673800 -2.279676 20.155734
2.619881 -1.580377 20.885095
1.175678 -0.383071 5.940805
1.597444 -0.332215 12.546274
2.471331 0.014628 22.097627
2.070960 -0.512692 12.527457
2.773300 -0.264915 18.293585
1.412916 -3.772952 19.630634
1.290076 -3.439627 19.696664
2.140262 -4.025543 19.473268
2.030169 -3.317457 19.769191
1.205196 -2.324439 20.727786
1.104369 -1.615663 21.496034
1.939856 -2.601027 20.304498
1.845905 -1.882653 20.828030
0.991321 -0.779569 22.136347
0.863625 -0.045559 22.466253
1.605763 -0.957359 19.327361
1.619871 -0.304097 22.194849
-0.043565 -3.536338 18.824250
-0.172829 -3.132302 19.500391
0.675394 -4.042868 19.378692
0.548470 -3.199800 19.264256
-0.308969 -2.234061 20.182160
-0.478371 -1.816870 21.668133
0.430528 -2.470657 19.633252
0.311300 -1.824873 20.318564
2.761982 -3.620174 18.644361
2.741702 -3.117177 19.548829
0.184833 -1.011598 20.631313
0.049660 -0.371108 21.749020
2.670860 -2.341124 20.121779
2.621789 -1.648868 20.894777
1.178945 -0.405461 5.960136
1.599848 -0.374249 12.565935
2.463924 -0.055132 22.020864
2.078365 -0.556982 12.576065
2.772345 -0.323590 18.283652
1.415930 -3.846182 19.666479
1.290276 -3.503299 19.686645
2.137341 -4.081258 19.428336
2.022522 -3.365402 19.671328
1.206520 -2.394294 20.745065
1.111143 -1.699208 21.652991
1.946035 -2.676782 20.368139
1.842071 -1.944133 20.769362
0.974689 -0.825225 21.647664
0.957367 -0.174108 25.745103
1.607006 -1.020604 19.339102
1.649772 -0.389066 22.671583
-0.042184 -3.576534 18.712036
-0.172620 -3.193944 19.483476
0.673091 -4.082478 19.263352
0.549039 -3.266680 19.280592
-0.308115 -2.295089 20.144224
-0.723205 -2.662360 29.599653
0.429975 -2.525293 19.564924
0.311180 -1.885149 20.263919
2.760988 -3.648534 18.630284
2.740762 -3.147237 19.535483
0.184875 -1.045857 20.647069
0.051140 -0.399802 21.547920
2.670208 -2.372649 20.111570
2.616944 -1.678389 20.848019
1.177201 -0.414230 5.947096
1.604106 -0.396879 12.604452
2.458424 -0.089507 21.964438
2.098406 -0.587174 12.714824
2.014281 -0.165830 12.717038
1.434568 -3.942699 19.970559
1.291476 -3.538989 19.702109
2.132308 -4.100748 19.368833
2.029255 -3.410576 19.739895
1.187782 -2.375550 20.340486
1.106179 -1.722688 21.526312
1.937719 -2.694793 20.262720
1.840455 -1.975131 20.743872
0.966676 -0.847355 21.412225
0.854898 -0.147650 22.150303
1.607064 -1.051670 19.336880
1.598521 -0.400273 21.844322
-0.045947 -3.666913 18.999654
-0.167758 -3.180626 19.223773
0.658849 -3.976797 18.649679
0.549457 -3.301563 19.296488
-0.309593 -2.335332 20.201476
-0.449515 -1.828772 20.728686
0.432461 -2.588362 19.780059
0.311604 -1.925450 20.333929
1.564285 0.070034 5.623047
2.826598 0.432883 12.264700
1.866090 0.362549 3.109776
2.905761 -1.643616 6.426741
1.833959 -0.426954 4.881886
2.084080 -0.267370 4.853138
1.792663 0.134030 4.145786
2.878823 -3.078958 12.704471
1.353034 -0.876168 5.278379
2.913044 -2.570875 9.758867
2.896288 -2.093398 10.248447
1.332850 -0.530116 5.546472
1.304532 -0.253388 5.757219
1.637469 -0.605422 5.365693
1.606230 -0.359502 5.515009
2.765207 -3.715001 18.648570
2.744555 -3.215099 19.553624
0.184850 -1.121755 20.784168
0.050768 -0.471299 21.617332
2.670312 -2.437210 20.102814
2.610597 -1.739822 20.784061
1.177404 -0.577494 5.665532
1.164609 -0.424889 5.860027
1.616420 -0.444605 12.717105
1.543029 0.018767 12.808253
2.275974 -0.718924 13.955875
1.998714 -0.202930 12.600398
1.417812 -3.947097 19.675637
1.287362 -3.587149 19.611248
2.119986 -4.133919 19.226487
2.049057 -3.514692 19.947265
1.224174 -2.543668 21.104068
1.095844 -1.767534 21.262948
1.939954 -2.763640 20.278585
1.836157 -2.035386 20.678880
0.967359 -0.916902 21.424233
0.854755 -0.218391 22.138550
1.611803 -1.118577 19.397951
1.610437 -0.476633 22.031293
-0.045433 -3.721004 18.953573
-0.174947 -3.310985 19.596347
0.657916 -4.026934 18.593019
0.570117 -3.583122 20.476596
-0.303316 -2.367413 19.945086
-0.449462 -1.895445 20.723646
0.431661 -2.639908 19.689522
0.311904 -1.994806 20.364369
2.765550 -3.775446 18.637656
2.737495 -3.267908 19.485667
0.184622 -1.213274 21.126585
0.052251 -0.533602 21.424810
2.670657 -2.502084 20.095937
2.611835 -1.807539 20.787295
1.182936 -0.602035 5.697791
1.165819 -0.445626 5.865448
1.616925 -0.486243 12.718535
1.530979 -0.020162 12.685806
2.102226 -0.671818 12.734267
1.997720 -0.243646 12.590695
1.421409 -4.022956 19.720611
1.287664 -3.650952 19.602722
2.126834 -4.211814 19.282178
2.055137 -3.591368 20.001598
1.501402 -3.415307 26.989881
1.089080 -1.819323 21.087151
1.937272 -2.823684 20.235220
1.837493 -2.103575 20.687154
0.967013 -0.984805 21.406204
0.851654 -0.286521 22.022762
1.702607 -1.278846 20.680362
1.027324 -0.203144 12.645013
-0.045474 -3.784028 18.950501
-0.170821 -3.335283 19.372308
0.659052 -4.097146 18.624001
0.571471 -3.662504 20.536885
-0.303058 -2.430680 19.930538
-0.440074 -1.930236 20.416336
0.432051 -2.707053 19.705767
0.312071 -2.061320 20.366867
2.767918 -3.809190 18.648545
2.738775 -3.300960 19.489677
0.184898 -1.231993 20.916614
0.052374 -0.567630 21.415361
2.669769 -2.533248 20.083513
2.603199 -1.833199 20.706699
1.181119 -0.609874 5.684521
1.170242 -0.458928 5.893625
1.616964 -0.506907 12.717160
1.528036 -0.040051 12.655321
2.786916 -1.063950 17.529773
1.998300 -0.264275 12.593660
1.408116 -4.006307 19.491246
1.287078 -3.680109 19.584610
2.125746 -4.240095 19.263300
2.023852 -3.557093 19.646983
1.504821 -3.468223 27.055133
1.078032 -1.826202 20.811225
1.945526 -2.871317 20.328665
1.849414 -2.154397 20.837772
0.968183 -1.021085 21.435957
0.867817 -0.336831 22.585262
1.706592 -1.316344 20.733426
1.024016 -0.221629 12.590228
-0.045357 -3.813219 18.938074
-0.166411 -3.324130 19.136342
0.657712 -4.113442 18.558534
0.559598 -3.565004 19.840840
-0.303056 -2.462935 19.928086
-0.438914 -1.959145 20.376912
0.431111 -2.725154 19.611926
0.314101 -2.138776 20.756466
1.587229 0.016865 5.730054
2.828377 0.333053 12.272672
1.715098 0.405234 3.313421
2.913329 -1.703396 6.430568
1.838404 -0.471033 4.890723
1.834604 -0.217275 5.101854
1.956446 -0.481482 4.288071
2.072788 -0.305217 4.814051
1.553854 0.310078 3.533329
2.879694 -3.183185 12.680788
1.349896 -0.917442 5.251121
2.911699 -2.649328 9.729878
2.902850 -2.183435 10.255344
1.328872 -0.573595 5.515875
1.296620 -0.297481 5.703037
1.633554 -0.648105 5.340585
1.605037 -0.405611 5.503314
2.771144 -3.904326 18.651928
2.738421 -3.394203 19.468306
0.185353 -1.312656 20.651687
0.051837 -0.675243 21.516683
2.665701 -2.624918 20.034274
2.602709 -1.932292 20.690208
1.181167 -0.638764 5.679909
1.166770 -0.485967 5.866152
1.613076 -0.566385 12.675250
1.525179 -0.100949 12.623475
2.267780 -0.849829 13.885895
1.998424 -0.325752 12.590592
1.409062 -4.103275 19.484112
1.285635 -3.768551 19.536005
2.096171 -4.260554 18.935261
2.010259 -3.621973 19.475805
1.220045 -2.733153 20.980859
1.072454 -1.911758 20.659584
1.959631 -2.995784 20.480554
1.884125 -2.308158 21.275222
0.992012 -1.169507 22.111323
0.855882 -0.432025 22.156135
1.733976 -1.447949 21.111050
1.023397 -0.282558 12.575404
-0.045257 -3.904952 18.920181
-0.164074 -3.394518 19.002863
0.670327 -4.329116 19.066293
0.552161 -3.575644 19.384375
-0.301268 -2.549662 19.849268
-0.441563 -2.067487 20.457177
0.435375 -2.877637 19.966651
0.312336 -2.192984 20.359194
2.764717 -3.923523 18.596779
2.737479 -3.424027 19.454544
0.185426 -1.344828 20.637046
0.051342 -0.713315 21.594922
2.661994 -2.652500 19.998079
2.598084 -1.961086 20.645042
1.180877 -0.648054 5.676352
1.160914 -0.491066 5.825512
1.613748 -0.587396 12.679701
1.522832 -0.120735 12.598836
2.785718 -1.176093 17.510580
1.999004 -0.346406 12.593426
1.407231 -4.127589 19.445871
1.283366 -3.791147 19.486410
2.497668 -5.276467 23.065292
2.013647 -3.660573 19.506631
1.189755 -2.673724 20.331334
1.071295 -1.941761 20.626150
1.946881 -3.004031 20.321711
1.842037 -2.276185 20.722544
0.976946 -1.175238 21.672134
0.855438 -0.466923 22.136852
1.724644 -1.470618 20.974951
1.024553 -0.303794 12.592299
-0.045825 -3.945662 18.960306
-0.167089 -3.455674 19.158000
0.681533 -4.473186 19.531317
0.554142 -3.628659 19.490003
-0.302352 -2.588042 19.890168
-0.441875 -2.101653 20.465232
0.434633 -2.898408 19.890405
0.312551 -2.229464 20.386902
2.762169 -3.949078 18.570641
2.735796 -3.452721 19.434884
0.185539 -1.373733 20.582485
0.053825 -0.731939 21.249563
2.653354 -2.673897 19.920583
2.598364 -1.994423 20.643312
1.179670 -0.656395 5.666926
2.778590 -1.838160 16.638350
1.616952 -0.610122 12.707923
1.520882 -0.140572 12.578144
2.771680 -1.195875 17.409467
1.998773 -0.366778 12.590290
1.399199 -4.128522 19.304374
1.284355 -3.826059 19.497441
2.486437 -5.285525 22.940199
2.024605 -3.715978 19.621407
1.497166 -3.659314 26.854162
1.071919 -1.976332 20.636388
1.908037 -2.961121 19.850042
1.839505 -2.305318 20.684694
0.969478 -1.194849 21.452322
0.858534 -0.506041 22.241392
1.727648 -1.507827 21.013762
1.025213 -0.324716 12.601182
-0.047152 -3.999493 19.058923
-0.162495 -3.440496 18.912365
0.675138 -4.438762 19.251584
0.557821 -3.701369 19.693607
-0.300821 -2.611361 19.826125
-0.440471 -2.129443 20.417624
0.429644 -2.857909 19.433024
0.313045 -2.272808 20.470135
1.580799 -0.029787 5.695856
2.827032 0.233154 12.264164
1.714469 0.375678 3.311748
2.940687 -1.779180 6.486050
1.874557 -0.532654 5.009416
1.839449 -0.262490 5.114383
2.069072 -0.345165 4.797310
2.880562 -3.287255 12.656276
1.347824 -0.959619 5.229336
2.914177 -2.731983 9.715160
2.902499 -2.266987 10.233078
1.324893 -0.616652 5.484962
1.291266 -0.342353 5.664258
1.630080 -0.690794 5.317083
1.598733 -0.448736 5.467982
2.765134 -4.043587 18.571390
2.734206 -3.543802 19.403058
0.185205 -1.516871 21.088231
0.054816 -0.828449 21.132362
2.647169 -2.761833 19.853050
2.590513 -2.085846 20.560887
2.788998 -2.384885 15.930702
2.804574 -1.940880 16.800482
2.305644 -1.164481 19.174094
1.520213 -0.201678 12.567708
2.770147 -1.278991 17.390112
1.994578 -0.426527 12.555076
1.419215 -4.297786 19.613773
1.292475 -3.951277 19.626051
2.470789 -5.355951 22.750883
2.393910 -4.644127 23.695702
1.187173 -2.795297 20.252589
1.071933 -2.075243 20.621196
1.943802 -3.127933 20.260823
1.837241 -2.400894 20.640261
0.964354 -1.286653 21.291293
0.851499 -0.603015 21.983385
1.730220 -1.612027 21.038518
1.577722 -0.837611 21.475221
-0.047028 -4.091369 19.038196
-0.163183 -3.540175 18.937440
0.668130 -4.457302 18.927885
0.556733 -3.781984 19.603709
-0.302983 -2.720779 19.904871
-0.447045 -2.253939 20.624031
0.431839 -2.981848 19.601176
0.312573 -2.355289 20.330542
2.765949 -4.074792 18.570209
2.734250 -3.574974 19.396865
0.185324 -1.545637 21.027450
0.055708 -0.856104 21.012610
2.644634 -2.790392 19.826492
2.584103 -2.112311 20.499717
2.789343 -2.410927 15.928284
2.786408 -1.952147 16.675179
2.454054 -1.303559 20.565595
1.520054 -0.222029 12.564791
2.771324 -1.307726 17.395368
1.991379 -0.445615 12.530049
1.393864 -4.231341 19.184358
1.290836 -3.976163 19.587961
2.470458 -5.391426 22.737973
2.047493 -3.893700 19.847128
1.205565 -2.887098 20.636656
1.072070 -2.108546 20.619301
1.992926 -3.259423 20.842992
1.822078 -2.408595 20.438071
0.964555 -1.321087 21.292636
0.848311 -0.633586 21.867958
1.749490 -1.670774 21.307542
1.455967 -0.769414 19.515752
-0.042205 -4.037834 18.662661
-0.164930 -3.589269 19.025413
0.673317 -4.541709 19.137598
0.543211 -3.654109 18.815339
-0.302095 -2.747638 19.866374
-0.451282 -2.303906 20.758784
0.431843 -3.012662 19.591928
0.312687 -2.389432 20.338126
2.762624 -4.098805 18.538073
2.732072 -3.602708 19.373093
0.185361 -1.581474 21.048309
0.055997 -0.888056 20.978695
2.644214 -2.821620 19.817558
2.585050 -2.146120 20.503670
2.790299 -2.437627 15.929722
2.785277 -1.978001 16.663645
1.728363 -0.796212 13.744697
1.520493 -0.242611 12.567807
2.115894 -0.908057 12.807003
1.990338 -0.465533 12.520822
1.389223 -4.243986 19.099322
1.288355 -3.997601 19.534218
2.478773 -5.448938 22.813904
2.015143 -3.851295 19.481419
1.190627 -2.871236 20.313597
1.082672 -2.171236 20.873460
1.997079 -3.301206 20.886373
1.820762 -2.439074 20.415866
0.965101 -1.356302 21.303890
0.847980 -0.668031 21.852360
1.743100 -1.696395 21.212918
1.450072 -0.795593 19.418247
-0.041635 -4.058416 18.614773
-0.166714 -3.639041 19.115240
0.672527 -4.563719 19.094929
0.541689 -3.665833 18.718876
-0.305348 -2.799774 19.993861
-0.443318 -2.305660 20.498605
0.429380 -3.006297 19.361750
0.314224 -2.460153 20.627289
1.573979 -0.085446 5.658744
2.831975 0.112956 12.285958
2.016541 0.143729 3.994274
1.992404 0.352238 4.057605
0.838372 -0.162716 1.237440
2.936662 -1.841140 6.454828
1.871909 -0.582499 4.991309
1.854899 -0.320833 5.163924
2.028108 -0.378971 4.668110
1.473086 0.121609 3.962995
1.574316 0.240703 3.596774
2.878835 -3.407989 12.611880
1.351457 -1.017439 5.235885
2.908539 -2.820797 9.663323
2.904932 -2.369962 10.217300
1.321942 -0.669593 5.458046
1.289770 -0.398860 5.647604
1.625733 -0.741542 5.287790
1.593296 -0.501162 5.434953
2.762483 -4.187818 18.514924
2.724308 -3.683641 19.291930
0.185908 -1.649027 20.678529
0.056560 -0.985952 20.920702
2.645072 -2.918078 19.808228
2.569613 -2.228252 20.353504
2.798671 -2.523952 15.968940
2.781301 -2.054917 16.625000
2.296223 -1.310915 19.070294
1.519822 -0.303607 12.556891
2.786747 -1.430281 17.490920
1.990999 -0.526913 12.520758
1.392971 -4.350447 19.137628
1.283122 -4.069991 19.413970
2.485113 -5.574673 22.849973
2.004006 -3.918781 19.336627
1.178957 -2.929257 20.047577
1.075383 -2.249890 20.678768
1.989356 -3.385262 20.774649
1.825646 -2.545663 20.463723
0.951881 -1.427041 20.909120
0.851621 -0.778777 21.967112
1.722532 -1.769620 20.909145
1.444054 -0.883376 19.312965
-0.041719 -4.151858 18.609346
-0.164049 -3.703900 18.963001
0.684323 -4.781322 19.563635
0.544537 -3.789057 18.856267
-0.316876 -2.969913 20.446846
-0.446397 -2.417787 20.590941
0.429745 -3.103033 19.365400
0.310395 -2.453292 19.824915
2.767177 -4.225912 18.542434
2.726326 -3.717783 19.301080
0.185794 -1.698678 20.848537
0.057506 -1.011865 20.792770
2.639013 -2.941640 19.752041
2.563201 -2.253942 20.292163
2.794125 -2.544612 15.935151
2.780757 -2.081185 16.617231
2.507548 -1.511320 21.051183
1.518468 -0.323374 12.541886
2.767914 -1.445301 17.356041
1.992927 -0.548150 12.533161
1.393595 -4.383527 19.139878
1.289787 -4.128236 19.529835
2.478014 -5.592572 22.767265
1.992075 -3.921563 19.197360
1.169601 -2.929464 19.843121
1.081443 -2.300840 20.821417
1.986286 -3.412003 20.731410
1.822960 -2.573644 20.423534
0.968470 -1.500459 21.382303
0.855975 -0.821265 22.115028
1.718524 -1.797409 20.848170
1.443740 -0.914042 19.304979
-0.043274 -4.210770 18.724814
-0.164082 -3.735173 18.960482
0.678382 -4.748081 19.303741
0.548524 -3.867469 19.076619
-0.312734 -2.976590 20.277682
-0.445791 -2.448498 20.568684
0.429307 -3.126562 19.316566
0.310156 -2.477290 19.762974
2.765404 -4.252475 18.521675
2.718223 -3.735723 19.230436
0.186278 -1.690695 20.417249
0.057806 -1.043097 20.756629
2.643760 -2.979767 19.785997
2.558795 -2.281638 20.248545
2.795692 -2.572057 15.940263
2.781094 -2.108255 16.615298
2.490090 -1.530750 20.883732
1.518109 -0.343571 12.536790
2.769655 -1.474456 17.364967
1.999443 -0.571618 12.579146
1.406273 -4.465000 19.341949
1.296243 -4.185990 19.641666
2.266005 -5.070904 20.582287
1.995462 -3.960368 19.227581
1.189394 -3.029083 20.255982
1.076954 -2.320603 20.706106
1.905900 -3.273984 19.763866
1.810532 -2.584050 20.256880
0.964520 -1.524874 21.263814
0.841582 -0.831295 21.607961
1.711711 -1.820987 20.747463
1.444047 -0.945303 19.306907
-0.042553 -4.228348 18.665056
-0.164263 -3.768078 18.965744
0.679017 -4.785589 19.320828
0.547715 -3.887670 19.021035
-0.315000 -3.024057 20.365165
-0.438199 -2.449504 20.320425
0.428162 -3.138835 19.204683
0.319564 -2.763132 21.603019
1.570810 -0.132185 5.639396
2.829844 0.013170 12.271795
2.010179 0.109700 3.975600
2.086036 0.318941 4.308489
2.944226 -1.901643 6.456940
1.844640 -0.608571 4.888942
1.861861 -0.367715 5.183266
2.054705 -0.429842 4.741074
1.710019 0.002073 3.879539
1.590512 0.208080 3.647199
2.883059 -3.516575 12.602545
2.840695 -2.946291 13.240787
2.916753 -2.910184 9.669404
2.909645 -2.458492 10.214313
1.317283 -0.711110 5.422562
1.284732 -0.442956 5.610050
1.624472 -0.785415 5.273174
1.589969 -0.545147 5.412482
2.766812 -4.344242 18.509357
2.717367 -3.826843 19.203146
0.186427 -1.792240 20.439220
0.057722 -1.145689 20.789723
2.640387 -3.070191 19.740658
2.554502 -2.374132 20.196445
2.793671 -2.646830 15.912654
2.780640 -2.188123 16.599565
2.485001 -1.626753 20.825080
1.520224 -0.405822 12.553222
2.768680 -1.557595 17.348253
1.999563 -0.633030 12.574624
1.399955 -4.531902 19.212399
1.299209 -4.292570 19.672625
2.448299 -5.658253 22.423083
1.996645 -4.055649 19.218686
1.174738 -3.074339 19.926480
1.082402 -2.436715 20.822109
1.900955 -3.358108 19.685746
1.812369 -2.684729 20.264504
0.973290 -1.649439 21.501564
0.841560 -0.934803 21.594142
1.716240 -1.927412 20.798466
1.449193 -1.043721 19.380225
-0.043422 -4.336801 18.719036
-0.161976 -3.835354 18.832673
0.683317 -4.925072 19.472327
0.549985 -4.006288 19.123901
-0.296565 -3.000752 19.617239
-0.435093 -2.534412 20.211911
0.426870 -3.208246 19.060093
0.310466 -2.607040 19.764547
2.763227 -4.367328 18.474958
2.715681 -3.854843 19.182912
0.186379 -1.836107 20.543216
0.057980 -1.177113 20.759371
2.644429 -3.107549 19.768496
2.555448 -2.407577 20.199972
2.792792 -2.671450 15.902041
2.782151 -2.216322 16.605292
2.481894 -1.657385 20.792195
1.525042 -0.428810 12.599664
2.767601 -1.584695 17.337308
2.001221 -0.654319 12.584875
1.402334 -4.572403 19.243408
1.295254 -4.307251 19.591271
2.447401 -5.691634 22.403936
1.992812 -4.077041 19.168901
1.197143 -3.186013 20.393839
1.090168 -2.494417 21.005940
1.945821 -3.488512 20.214961
1.808463 -2.709838 20.208346
0.976188 -1.691387 21.579959
0.849404 -0.984770 21.863506
1.712510 -1.955003 20.741257
1.448258 -1.073767 19.362032
-0.043434 -4.367834 18.715491
-0.162009 -3.866454 18.829941
0.684872 -4.973255 19.527747
0.551150 -4.051203 19.181434
-0.294300 -3.017387 19.523171
-0.426770 -2.530057 19.939958
0.426121 -3.225921 18.983613
0.310285 -2.632205 19.714304
2.765075 -4.400404 18.480940
2.717204 -3.888138 19.187880
0.186512 -1.860938 20.462137
0.057664 -1.214185 20.810770
2.638603 -3.130904 19.714048
2.557062 -2.441817 20.209357
2.791912 -2.696044 15.891392
2.779256 -2.240210 16.581617
2.481109 -1.689989 20.781045
1.529463 -0.451725 12.642091
2.766522 -1.611765 17.326322
2.762771 -1.082078 18.158748
1.373812 -4.485004 18.763024
1.296136 -4.342295 19.599453
2.449324 -5.732618 22.413611
1.991972 -4.105671 19.152150
1.185269 -3.175839 20.136113
1.081376 -2.499873 20.785415
1.998077 -3.637011 20.831994
1.805470 -2.736507 20.164000
0.977080 -1.728201 21.600561
0.843923 -1.008544 21.667744
1.716215 -1.993914 20.789126
1.451791 -1.108762 19.415480
-0.046302 -4.452960 18.931308
-0.162564 -3.903475 18.854521
0.681136 -4.962334 19.360901
0.549965 -4.066421 19.104170
-0.288489 -3.009738 19.287158
-0.425616 -2.557097 19.899727
0.426386 -3.260050 18.997594
0.310537 -2.669625 19.749132
1.564373 -0.177346 5.604084
1.994519 0.077343 3.932426
2.941552 -1.953463 6.431756
2.911934 -1.621262 6.662191
1.790028 -0.615754 4.691896
1.853998 -0.408397 5.148614
2.045932 -0.466781 4.708364
1.479887 0.050835 3.983711
1.781127 0.160628 4.254527
2.883918 -3.620128 12.575384
2.836918 -3.048616 13.193292
2.916354 -2.988968 9.641491
2.907904 -2.540187 10.184252
1.311946 -0.751422 5.382916
1.280332 -0.487011 5.576099
1.615230 -0.822168 5.223816
1.582382 -0.585978 5.370353
2.763117 -4.485695 18.442925
2.709927 -3.968066 19.109458
0.186769 -1.950542 20.369959
0.057927 -1.313614 20.793179
2.642745 -3.231799 19.730631
2.552767 -2.533819 20.156546
2.792334 -2.773433 15.878756
2.778506 -2.319594 16.563313
2.474960 -1.784134 20.711789
1.531179 -0.514392 12.654033
2.766673 -1.695560 17.316839
2.767799 -1.172569 18.187316
1.383642 -4.616518 18.900558
1.284902 -4.387378 19.367114
2.454529 -5.854354 22.436553
1.998965 -4.215324 19.206647
1.138183 -3.098221 19.121507
1.075618 -2.580346 20.627166
2.112832 -3.998476 22.179486
1.804716 -2.831862 20.137363
0.949797 -1.754678 20.800763
0.824162 -1.068984 20.964737
1.721304 -2.101926 20.847191
1.636440 -1.422815 22.366427
-0.048333 -4.585705 19.073295
-0.165677 -4.031980 19.004111
0.673699 -4.969599 19.019202
0.553529 -4.203210 19.280086
-0.283025 -3.065708 19.058355
-0.425088 -2.651245 19.873921
0.432575 -3.453586 19.518751
0.313206 -2.838945 20.227102
2.751510 -4.493202 18.348802
2.709968 -3.998777 19.102597
0.186391 -2.033115 20.815513
0.056734 -1.360685 20.969968
2.626110 -3.238779 19.586091
2.557503 -2.571880 20.193285
2.790232 -2.796467 15.860187
2.779136 -2.346909 16.562956
2.471430 -1.813953 20.674722
1.533409 -0.536312 12.674460
2.765875 -1.722776 17.307651
2.761643 -1.198229 18.139413
1.378293 -4.624028 18.803733
1.277369 -4.385352 19.219667
2.454759 -5.890812 22.428647
1.994779 -4.235469 19.152803
1.178667 -3.279757 19.969860
1.080138 -2.628364 20.731380
1.931447 -3.617133 20.009847
1.811313 -2.877115 20.217059
0.947365 -1.780907 20.725782
0.825541 -1.105562 21.008322
1.724308 -2.140181 20.884883
1.563510 -1.369580 21.193217
-0.048977 -4.629598 19.117817
-0.173414 -4.153442 19.405075
0.669822 -4.955302 18.846845
0.553127 -4.228386 19.247520
-0.283471 -3.099781 19.072615
-0.426507 -2.690055 19.916616
0.431030 -3.457924 19.371270
0.313419 -2.876216 20.253657
2.749772 -4.548802 18.320063
2.710794 -4.061527 19.094658
0.186503 -2.101072 20.817882
0.054442 -1.455619 21.311408
2.629732 -3.307073 19.604040
2.555383 -2.633995 20.164332
2.790615 -2.848124 15.852169
2.778930 -2.400091 16.552452
2.469020 -1.877878 20.644092
1.535484 -0.578871 12.691486
2.765976 -1.778608 17.301059
2.763106 -1.257492 18.144340
1.390194 -4.735346 18.983172
1.282289 -4.468610 19.294044
2.446007 -5.937893 22.318702
1.982005 -4.264039 18.996681
1.172431 -3.319877 19.824667
1.068477 -2.654671 20.434987
1.906256 -3.622391 19.696067
1.810507 -2.940230 20.195010
0.945758 -1.842346 20.669295
0.845477 -1.219671 21.693805
1.729761 -2.216189 20.952252
1.557559 -1.429880 21.090219
-0.050616 -4.724863 19.233825
-0.166743 -4.137722 19.045640
0.669157 -5.007389 18.799272
0.552359 -4.278985 19.184359
-0.287757 -3.192429 19.236878
-0.426828 -2.756101 19.920835
0.432163 -3.538121 19.451503
0.310858 -2.860181 19.721714
1.557527 -0.221806 5.566484
1.554483 0.047939 5.858660
1.995305 0.042837 3.931881
2.941606 -2.007448 6.413299
2.933966 -1.693542 6.706355
1.793919 -0.658610 4.697249
1.859370 -0.454807 5.161479
2.023892 -0.497271 4.635991
1.496345 0.011691 4.042813
1.723673 -0.069629 3.914989
1.751338 0.126869 4.157383
2.885895 -3.725249 12.553024
2.841325 -3.161452 13.188926
2.925520 -3.079920 9.649766
2.911690 -2.627732 10.176090
1.309312 -0.794169 5.358479
1.277211 -0.531637 5.549653
1.614409 -0.865855 5.210491
1.578200 -0.628615 5.343388
2.755277 -4.618325 18.344747
2.703222 -4.109383 19.020569
0.186547 -2.176466 20.883482
0.053759 -1.533507 21.421142
2.623951 -3.361036 19.543515
2.547234 -2.688222 20.081966
2.789772 -2.898154 15.836117
2.781364 -2.455984 16.559248
2.462590 -1.937514 20.575586
2.203605 -1.075264 19.347522
2.763533 -1.832192 17.276488
2.764022 -1.316393 18.145016
1.428084 -4.960816 19.590565
1.276265 -4.503186 19.166155
2.466960 -6.068664 22.511643
1.968521 -4.289769 18.832705
1.169916 -3.373448 19.757915
1.332381 -3.642228 26.850172
1.913408 -3.702391 19.767442
1.784417 -2.951203 19.845721
0.946013 -1.909074 20.666184
0.831926 -1.255464 21.212060
1.705599 -2.241564 20.601381
1.555820 -1.495059 21.054582
-0.124303 -6.257084 24.875258
-0.168374 -4.219479 19.121008
0.669410 -5.069958 18.789950
0.554312 -4.365781 19.276690
-0.287172 -3.250633 19.205893
-0.421156 -2.792695 19.731041
0.430594 -3.571530 19.291947
0.310512 -2.909710 19.624526
2.757383 -4.651895 18.352202
2.702275 -4.138200 19.005743
0.187054 -2.153934 20.408765
0.055491 -1.547661 21.178968
2.622352 -3.389887 19.523939
2.548624 -2.722186 20.088915
2.791642 -2.926046 15.842570
2.776998 -2.477941 16.525474
2.461381 -1.969234 20.560053
2.201074 -1.104546 19.319401
2.767527 -1.863424 17.300497
2.764885 -1.346110 18.148246
1.429176 -4.996886 19.599516
1.273674 -4.522093 19.109963
2.473019 -6.121906 22.562832
1.972787 -4.331124 18.871853
1.170615 -3.407712 19.765745
1.071803 -2.764202 20.497580
1.942848 -3.804415 20.110801
1.787055 -2.988444 19.873933
0.944132 -1.936239 20.606917
0.835195 -1.297554 21.321128
1.703269 -2.270454 20.563575
1.556254 -1.529326 21.057576
-0.054364 -4.894933 19.505569
-0.170268 -4.273614 19.215071
0.669352 -5.099070 18.777516
0.549615 -4.332700 18.998729
-0.289539 -3.299176 19.296528
-0.422514 -2.831350 19.771482
0.431457 -3.616966 19.358287
0.310126 -2.927611 19.534420
2.749951 -4.696105 18.280849
2.695692 -4.187344 18.939329
0.187294 -2.203708 20.271780
0.055038 -1.622952 21.256603
2.619628 -3.448241 19.488680
2.542932 -2.779128 20.028060
2.789579 -2.974519 15.818644
2.780904 -2.535510 16.541885
2.455589 -2.029053 20.497334
2.197213 -1.163796 19.275049
2.767063 -1.918737 17.289533
2.763107 -1.403337 18.129017
1.423515 -5.034492 19.488154
1.277962 -4.602819 19.172107
2.108483 -5.141090 18.827982
1.970049 -4.384365 18.826077
1.165213 -3.449463 19.638014
1.071751 -2.829447 20.483757
1.920280 -3.814005 19.828152
1.838631 -3.161275 20.528530
0.941346 -1.993175 20.516211
0.838365 -1.373956 21.421520
1.700159 -2.330727 20.509730
1.550423 -1.588608 20.956128
-0.054059 -4.953013 19.471619
-0.170073 -4.334023 19.194633
0.671633 -5.185826 18.852609
0.548060 -4.371398 18.890609
-0.312621 -3.534214 20.210681
-0.424490 -2.905412 19.828563
0.432102 -3.689121 19.394752
0.314087 -3.113343 20.276055
1.553127 -0.266875 5.540248
1.548729 -0.000260 5.826572
2.943706 -2.063144 6.399741
2.932702 -1.748667 6.686299
1.790154 -0.696341 4.675829
1.832971 -0.485625 5.059328
1.497440 -0.023850 4.043745
2.029794 0.054358 5.044069
2.891606 -3.836256 12.548524
2.843949 -3.271955 13.174101
2.934206 -3.170578 9.655392
2.914093 -2.713750 10.161585
1.309382 -0.839713 5.349188
1.280815 -0.581756 5.563917
1.617579 -0.913162 5.213972
1.574016 -0.670889 5.316110
2.753384 -4.761665 18.289674
2.697993 -4.252282 18.942264
0.187459 -2.261539 20.206015
0.056286 -1.676462 21.088875
2.615959 -3.504838 19.445336
2.540580 -2.840139 19.996408
2.788734 -3.024398 15.802203
2.780104 -2.587875 16.526775
2.451691 -2.090491 20.452114
2.369443 -1.356465 20.984523
2.765465 -1.972912 17.270430
2.763212 -1.461683 18.123310
1.604391 -5.906684 22.445528
1.267411 -4.615160 18.960734
2.468670 -6.253238 22.475674
1.959380 -4.415970 18.692965
1.159713 -3.490007 19.508144
1.063243 -2.863432 20.264134
1.895734 -3.816933 19.522113
1.867973 -3.290222 20.894946
0.953788 -2.099278 20.862150
0.816156 -1.381471 20.638624
1.707146 -2.409149 20.598046
1.545328 -1.648281 20.866335
-0.123029 -6.434506 24.743276
