# .PCD v.7 - Point Cloud Data file format
VERSION .7
FIELDS x y z
SIZE 4 4 4
TYPE F F F
COUNT 1 1 1
WIDTH 1705
HEIGHT 1
POINTS 1705
DATA ascii
2.895453 5.220863 6.461915
2.889492 5.664746 6.330125
2.723768 7.238984 6.751473
2.738496 7.864030 6.618439
2.788814 5.963345 5.890630
2.758114 6.336358 5.665289
2.715016 8.028044 11.419325
2.660801 8.811667 11.284612
2.754984 6.041532 9.156857
2.747191 6.724618 9.118047
2.410609 8.892625 10.165562
2.267868 9.252253 9.559502
2.720503 7.460113 8.912301
2.696534 8.104507 8.801016
2.010041 9.349375 12.082623
2.180846 11.170603 13.436695
2.141565 12.058860 13.337984
2.107927 12.967545 13.343145
2.264401 9.520290 10.934071
2.068462 9.279109 10.045150
2.078911 14.010740 13.338887
2.980333 22.763906 19.776641
2.071938 23.505870 29.440885
1.864022 24.138064 29.168050
2.848148 19.122528 24.745047
1.471663 12.969880 13.703433
0.466593 9.140371 8.389273
2.966017 32.025584 30.488126
2.014492 9.355272 12.126684
1.944430 9.811294 11.923069
2.138970 12.023957 13.341149
2.106488 12.939125 13.355281
2.274987 9.553792 11.002999
2.089507 9.370318 10.166788
2.075166 13.964358 13.336898
2.978342 22.720190 19.800974
2.851488 14.298400 14.016731
2.072768 23.475804 29.496497
2.849210 19.094614 24.787693
1.468455 12.918466 13.692790
0.467730 9.172578 8.441126
2.972597 32.060391 30.614875
0.869306 9.048731 8.522671
2.024109 9.370468 12.219440
1.962110 9.877616 12.070908
-0.526447 65.117724 61.273970
2.135746 11.966468 13.360142
2.102141 12.872346 13.369473
2.269759 9.498653 11.008257
2.104826 9.418306 10.275340
2.068454 13.877593 13.337812
2.975456 22.641827 19.856944
2.849724 14.249279 14.054908
2.846530 19.004078 24.828872
1.443860 9.974242 12.431882
1.461345 12.808824 13.663880
0.468291 9.177124 8.494587
2.973777 31.990964 30.738824
0.880291 9.177772 8.684816
2.873144 3.647096 5.709795
2.900817 4.058768 5.676006
2.650871 8.786252 8.488247
2.598022 9.380103 8.206479
2.864103 4.432330 5.442504
2.886090 4.844316 5.353478
2.859537 3.718130 4.853906
2.860793 4.015307 4.759484
2.900583 5.309830 5.156124
2.914965 5.708390 5.019153
2.888279 4.441885 4.595049
2.898362 4.775796 4.453988
2.918209 5.274947 7.884265
2.889492 5.771219 7.742288
2.913589 4.247345 6.763382
2.911438 4.684608 6.693023
2.732589 6.017226 7.177598
2.741147 6.600289 7.080295
2.888717 5.162903 6.489010
2.878576 5.597577 6.351979
2.721258 7.185338 6.803596
2.732647 7.800327 6.667555
2.801008 5.952227 5.964528
2.764691 6.315111 5.729692
2.714710 7.944751 11.484136
2.651615 8.697005 11.315885
2.758624 5.984915 9.218925
2.743095 6.648635 9.158843
2.442503 8.952786 10.382471
2.265351 9.173842 9.624120
2.721210 7.399255 8.975526
2.697571 8.046110 8.870495
2.027440 9.352855 12.272292
1.940125 9.719765 11.960795
2.125952 11.868267 13.335455
2.092814 12.771678 13.349922
2.258454 9.415616 10.982664
2.134360 9.536321 10.456640
2.060379 13.780712 13.329007
2.066682 15.160638 13.610757
2.851984 14.221633 14.113501
2.844724 18.919594 24.877716
1.445464 9.952745 12.481675
0.464202 9.018755 8.409319
2.771735 29.577565 28.643440
2.557515 32.017517 28.723006
2.036085 9.362244 12.359152
1.944196 9.708902 12.020030
2.124048 11.819031 13.362590
1.749960 10.412436 11.079193
2.241636 9.307630 10.928615
2.138524 9.527692 10.509388
2.054657 13.701543 13.335815
2.059562 15.065544 13.611791
2.849152 14.166515 14.145920
2.348171 26.658235 34.048994
2.842731 18.833778 24.924553
0.463591 8.982311 8.427281
2.771477 29.496854 28.743227
2.549853 31.837897 28.743063
2.030614 9.316725 12.339782
2.120141 11.776165 13.356460
2.085372 12.665470 13.363800
2.269320 9.418687 11.084502
2.144232 9.541201 10.554339
2.051311 13.658349 13.335761
2.854292 14.174016 14.195691
2.341740 26.531227 33.997138
2.840718 18.783519 24.938467
1.461341 12.716272 13.774563
0.463899 8.985278 8.454558
2.767277 29.409479 28.748277
2.866716 3.599120 5.726704
2.892244 4.006782 5.692336
2.657331 8.750926 8.581238
2.587173 9.279686 8.246971
2.860828 4.389944 5.472158
2.879987 4.796922 5.381462
2.855919 3.680625 4.877983
2.861308 3.984571 4.792704
2.895991 5.266168 5.190844
2.916628 5.678760 5.067790
2.883152 4.403005 4.622938
2.894100 4.738975 4.486149
2.916078 5.215012 7.921292
2.886291 5.709688 7.780417
2.907241 4.190051 6.783017
2.906512 4.629315 6.719643
2.736379 5.976502 7.236597
2.741688 6.552723 7.135143
2.892748 5.125974 6.539917
2.886796 5.571613 6.415332
2.721743 7.140087 6.862887
2.731141 7.750142 6.726753
2.815602 5.945968 6.043704
2.762493 6.270943 5.776029
2.712981 7.856347 11.541908
2.656010 8.631907 11.407373
2.773322 5.954079 9.319173
2.742556 6.581983 9.211300
2.492433 9.084195 10.682917
2.259172 9.078120 9.671386
2.722346 7.339157 9.039773
2.699842 7.991219 8.943771
2.044101 9.350244 12.458040
1.944434 9.659277 12.070572
2.109698 11.674434 13.326329
2.076885 12.570907 13.348767
2.290188 9.482347 11.221932
2.143111 9.506058 10.580236
2.041867 13.551718 13.316300
1.315629 8.967860 8.461648
2.849869 14.110128 14.219791
2.336389 26.370757 34.010044
2.837378 18.687861 24.972324
1.456162 9.951621 12.670306
1.460961 12.675102 13.814694
2.641614 65.077663 61.240134
0.460952 8.867200 8.401720
2.757753 29.221955 28.745308
2.042827 9.308340 12.481221
1.923841 9.510684 11.967406
2.106045 11.614582 13.341040
2.073381 12.510122 13.367083
2.286701 9.434768 11.235517
2.834858 12.877096 14.166487
2.038316 13.488817 13.337091
1.320558 8.985459 8.526496
2.015407 9.625028 9.959450
1.793871 9.090827 8.903589
2.334821 26.257338 34.081840
2.837952 18.619973 25.042125
1.456638 9.920288 12.709300
2.640382 64.906107 61.462175
2.748963 29.043352 28.749625
2.047513 9.314281 12.527225
1.920926 9.477609 11.964219
2.102580 11.574624 13.337348
2.068828 12.460887 13.357083
2.287136 9.420826 11.253412
2.831601 12.840891 14.171060
2.033794 13.437112 13.328319
1.318947 8.961138 8.530243
2.000837 9.533713 9.900081
1.787342 9.041145 8.884714
2.332399 26.180246 34.091705
2.834917 18.562420 25.046089
2.753307 29.053666 28.848185
2.866413 3.559530 5.755319
2.894171 3.970902 5.728518
2.668124 8.730544 8.688778
2.582745 9.204968 8.307612
2.861959 4.354806 5.509769
2.885374 4.770620 5.430003
2.853968 3.645339 4.904496
2.858558 3.948513 4.820424
2.897721 5.234958 5.236278
2.914175 5.639842 5.109293
2.887640 4.380152 4.665346
2.895338 4.711953 4.526073
2.917897 5.162550 7.968813
2.887476 5.657493 7.830065
2.918859 4.161008 6.844471
2.909379 4.587608 6.763859
2.750265 5.959591 7.322717
2.753560 6.534825 7.219653
2.896780 5.088571 6.590602
2.888843 5.531827 6.464907
2.725219 7.103055 6.929551
2.737350 7.723890 6.804778
2.829592 5.937439 6.121811
2.767314 6.244179 5.836553
2.715885 7.782310 11.619844
2.662439 8.573269 11.507755
2.791701 5.930736 9.432380
2.747791 6.530286 9.283402
2.553612 9.257350 11.037636
2.276511 9.089675 9.825492
2.723483 7.278514 9.103588
2.698005 7.922162 9.002533
2.254866 10.323740 13.903106
1.914868 9.410287 11.956092
2.098502 11.512170 13.348844
2.058271 12.352867 13.326763
2.295537 9.426858 11.327754
2.129026 9.362737 10.586077
2.025146 13.336770 13.313125
1.809089 9.141506 9.028165
2.326659 26.015135 34.096763
2.832947 18.476232 25.091822
2.906610 21.352856 26.791462
2.627698 83.859172 74.659031
2.956864 31.290589 31.212205
1.910417 9.352003 11.958209
2.100769 11.488316 13.402797
1.723462 10.081570 11.071313
2.309432 9.457288 11.430388
2.150449 9.437530 10.728017
2.021798 13.275492 13.334434
1.985845 9.399407 9.885079
2.322799 25.873455 34.131010
2.830964 18.389948 25.137112
2.904958 21.263237 26.849255
2.621726 83.505267 74.814732
2.959053 31.230162 31.345467
2.261126 10.295302 13.995897
1.908427 9.324157 11.960771
2.110672 11.529384 13.489041
2.053550 12.265512 13.356509
2.294514 9.374055 11.369316
2.828398 12.723849 14.260451
1.652326 10.557360 10.765883
1.990495 14.303822 13.395503
1.998260 9.451247 9.965411
2.318985 25.779479 34.117919
2.830833 18.352731 25.167695
2.905098 21.225901 26.887399
2.962480 31.226035 31.438074
0.867540 8.842168 8.768339
2.866112 3.519722 5.783624
2.893849 3.931293 5.760055
2.677730 8.704726 8.792462
2.586996 9.164483 8.396585
2.859421 4.313218 5.540133
2.882864 4.729382 5.463859
2.857011 3.616885 4.939074
2.860708 3.919796 4.855794
2.897346 5.199176 5.277758
2.916526 5.610932 5.158629
2.890526 4.354236 4.705135
2.895006 4.681765 4.563468
2.915206 5.100947 8.003326
2.889756 5.607248 7.882362
2.892558 4.072247 6.815985
2.907054 4.536457 6.795658
2.764678 5.942974 7.410424
2.743803 6.458972 7.246529
2.891316 5.032395 6.619269
2.892742 5.495536 6.518357
2.725705 7.056786 6.988239
2.734399 7.668134 6.859681
2.848984 5.940576 6.211865
2.769795 6.210985 5.892068
2.715230 7.696301 11.681132
2.692945 8.599740 11.718163
2.813299 5.913505 9.557113
2.751694 6.474361 9.350535
2.562238 9.213565 11.153593
2.313071 9.186589 10.069210
2.725476 7.219852 9.169949
2.701920 7.871453 9.080687
2.271249 10.285480 14.113974
1.914886 9.308773 12.050893
2.118235 11.517812 13.598466
2.045094 12.153351 13.359890
2.273221 9.230481 11.305821
2.181319 9.526717 10.951368
2.010403 13.118622 13.343175
2.626470 13.714279 13.430249
2.311721 25.549049 34.143953
2.826334 18.212328 25.220525
2.904067 21.102264 26.987383
2.625254 83.326427 75.597641
1.400170 13.469224 14.046501
0.863084 8.749628 8.760096
1.918653 9.312307 12.091767
2.099005 11.382888 13.487167
2.045534 12.137569 13.383401
2.302324 9.344277 11.471845
2.197871 9.591384 11.053593
2.003335 13.048781 13.315342
2.308610 25.463851 34.141226
2.826034 18.173787 25.249232
2.906279 21.080879 27.045532
1.601347 12.268555 14.883271
2.627552 83.328956 75.837027
1.397088 13.415749 14.035317
2.030543 9.050559 12.571752
1.922650 9.316992 12.134219
2.075398 11.222036 13.345665
2.039951 12.081915 13.365163
2.308549 9.355708 11.519661
2.002357 13.023241 13.330391
1.974831 14.086770 13.402614
2.616355 13.619119 13.422087
2.306000 25.384754 34.146277
2.823347 18.118673 25.255405
2.904667 21.029522 27.066276
2.899313 23.643353 28.187735
1.460381 12.423485 14.092421
1.393381 13.355293 14.016935
0.867884 8.791616 8.850208
2.862752 3.475582 5.805472
2.888282 3.883550 5.780972
2.684970 8.669303 8.888117
2.625185 9.257694 8.600076
2.856151 4.270213 5.568732
2.885381 4.697054 5.506696
2.855893 3.582332 4.966450
2.861225 3.888289 4.888290
2.893461 5.156137 5.312665
2.915446 5.574292 5.201884
2.891009 4.323986 4.740974
2.898601 4.658341 4.606525
2.911954 5.038050 8.035731
2.888204 5.548330 7.923634
2.892206 4.024097 6.848282
2.906029 4.487335 6.830077
2.784398 5.937950 7.512876
2.747435 6.418137 7.308641
2.892818 4.989387 6.663501
2.888622 5.441902 6.553488
2.724695 7.005754 7.042662
2.738678 7.634565 6.932484
2.859361 5.921962 6.282551
2.767599 6.165644 5.937478
2.712798 7.604262 11.733618
2.696312 8.527351 11.804619
2.833969 5.892567 9.678844
2.751158 6.406223 9.401618
2.553144 9.097671 11.187251
2.825643 11.422521 12.532752
2.720207 7.139364 9.210369
2.700087 7.801400 9.138441
1.930025 9.305424 12.230784
2.066988 11.115203 13.344761
2.035865 11.998846 13.397623
2.344868 9.467469 11.755287
2.199506 9.536820 11.125705
1.993525 12.903976 13.333222
1.966437 13.964869 13.412803
2.019021 9.448221 10.199807
2.610637 13.530147 13.459159
2.298455 25.151352 34.165088
2.821924 17.999242 25.335931
2.905868 20.922351 27.187233
1.562433 28.352448 30.606656
2.894639 23.482567 28.262619
1.463491 12.396663 14.190704
1.391899 13.282528 14.070013
2.295596 10.283391 14.377898
1.934710 9.313454 12.278010
-1.058289 64.963647 61.613745
1.807414 9.547719 11.586227
2.028209 11.929761 13.364468
2.339510 9.427048 11.743105
2.184617 9.449671 11.063259
1.988034 12.845866 13.315847
1.957537 13.875744 13.371751
2.015144 9.413812 10.194987
2.295151 25.064069 34.158282
2.818898 17.941792 25.338500
2.904258 20.870851 27.207665
2.894272 23.439243 28.299602
1.465350 12.395666 14.232347
1.387193 13.211060 14.039799
1.938014 9.313899 12.315992
1.836378 9.703982 11.800951
2.023045 11.877156 13.348525
2.340231 9.413520 11.762559
2.183638 9.429377 11.073820
1.984311 12.800570 13.310925
1.956782 13.851409 13.389622
2.023544 9.443307 10.255155
2.600530 13.435303 13.449987
2.292248 24.981643 34.157692
2.101929 26.315771 34.659423
2.816214 17.886715 25.344179
2.903445 20.825494 27.235842
1.557766 28.178816 30.611452
2.901443 23.461485 28.414238
1.469940 12.421487 14.303483
2.674939 64.661466 64.359847
2.453210 29.742298 28.694755
2.864687 3.430371 5.843129
2.890145 3.838851 5.822290
2.686560 8.600199 8.978141
2.625515 9.187278 8.691329
2.855748 4.224155 5.609254
2.881364 4.645098 5.544513
2.850558 3.535113 4.992036
2.856783 3.842507 4.918501
2.896518 5.119333 5.367905
2.917028 5.535991 5.258294
2.890625 4.285730 4.782042
2.893488 4.612942 4.643587
2.912561 4.970837 8.086577
2.887655 5.480022 7.976099
2.899763 3.978090 6.905560
2.901035 4.421653 6.861839
2.801891 5.915841 7.619072
2.745304 6.351576 7.365132
2.888542 4.925812 6.701912
2.893051 5.396779 6.616248
2.726570 6.952760 7.115500
2.736098 7.569526 6.999688
2.875049 5.906045 6.374504
2.768819 6.120362 5.999599
2.714149 7.506519 11.815094
2.672762 8.342835 11.779520
2.858668 5.865200 9.824765
2.752289 6.328508 9.468422
2.622793 9.277507 11.603144
2.383224 9.342852 10.564620
2.724647 7.073671 9.295934
2.701003 7.726795 9.217878
1.945843 9.303535 12.415983
1.840076 9.676175 11.875424
2.020005 11.801140 13.387118
2.344122 9.380335 11.829796
1.978826 12.705793 13.336163
2.286215 24.766772 34.198126
2.083727 25.921840 34.478985
2.813094 17.755304 25.407384
2.904011 20.712462 27.349675
1.560796 28.127539 30.840583
1.474682 12.409428 14.419793
2.682014 64.621542 64.923553
1.386021 13.122756 14.118602
2.443878 29.504345 28.734445
1.948684 9.301151 12.450952
1.840144 9.659895 11.892242
2.004676 11.682424 13.299314
2.348894 9.384396 11.870471
2.638814 11.533206 13.548198
1.977068 12.674679 13.344956
1.939506 13.641414 13.356255
2.583380 13.263369 13.446585
2.282420 24.673888 34.182397
2.083921 25.877239 34.530896
2.810071 17.697946 25.409424
2.903676 20.670576 27.382308
2.895815 23.251138 28.518589
2.685400 64.633784 65.138097
1.384949 13.091921 14.129291
2.437195 29.377864 28.702359
1.836055 9.619042 11.880327
2.010101 11.699080 13.357204
2.338330 9.321269 11.830559
2.615837 11.404673 13.445433
1.970798 12.611296 13.321215
1.937644 13.608387 13.365585
2.580375 13.227617 13.452392
2.279423 24.590560 34.179349
2.081564 25.797402 34.536676
2.810287 17.662578 25.442194
2.902864 20.624983 27.410141
2.897664 23.226534 28.578218
1.477166 12.394260 14.490112
2.433147 29.286201 28.703063
2.867450 3.393897 5.876623
2.894324 3.805133 5.861731
2.673720 8.491627 9.003262
2.633521 9.158102 8.793634
2.855415 4.185486 5.642779
2.882446 4.609491 5.584059
2.854435 3.506980 5.027278
2.860568 3.815377 4.955840
2.898249 5.086630 5.412314
2.918693 5.504367 5.305747
2.891109 4.254864 4.817360
2.896298 4.587407 4.685014
2.911005 4.910588 8.122679
2.888297 5.425018 8.022504
2.890769 3.916306 6.916285
2.905854 4.381879 6.909235
2.821599 5.908226 7.722121
2.751510 6.316246 7.433622
2.886882 4.876174 6.737949
2.888318 5.341260 6.649049
2.726061 6.902169 7.170406
2.741340 7.537622 7.074472
2.885419 5.885753 6.445338
2.762537 6.064193 6.035379
2.714925 7.423330 11.880777
2.685625 8.302525 11.908533
2.880705 5.843968 9.951889
2.749983 6.254938 9.511994
2.617875 9.175179 11.656442
2.412699 9.398583 10.781256
2.724935 7.008398 9.354769
2.703688 7.670102 9.290474
2.609234 11.612000 16.621235
2.181985 10.471735 14.101167
1.827285 9.517411 11.868108
2.001673 11.588227 13.356691
2.333831 9.251091 11.853216
2.204152 9.400753 11.307789
1.965125 12.515355 13.343862
2.587604 12.226552 13.408148
1.922523 9.508655 9.956304
2.273008 24.371509 34.211023
2.074477 25.558175 34.552868
2.806491 17.526285 25.497701
2.901683 20.497686 27.505699
1.372298 10.010463 12.790087
1.484220 12.403434 14.632023
2.112478 64.740676 61.712899
1.383779 13.003094 14.207306
2.605422 11.569522 16.615454
2.181816 10.450668 14.117725
1.829323 9.512673 11.898360
2.003155 11.579058 13.386753
2.340338 9.262450 11.903031
2.625688 11.374224 13.573591
1.961212 12.468981 13.336642
1.930812 9.540951 10.017067
2.276185 24.360975 34.307662
2.071685 25.472517 34.549998
2.802450 17.462120 25.489452
2.901190 20.454348 27.536409
1.376126 10.025605 12.847552
1.489619 12.435845 14.712783
2.607200 11.529898 16.666348
2.189517 10.451035 14.205580
1.847384 9.584747 12.056246
2.011294 11.593948 13.483572
2.332228 9.193422 11.890794
2.200096 9.333660 11.332867
1.958280 12.411145 13.357341
1.928118 13.423341 13.432093
2.579575 12.128350 13.425591
2.264115 24.123573 34.200824
2.068543 25.334929 34.588364
2.800997 17.378464 25.536134
2.899234 20.360318 27.587942
2.895133 22.960261 28.793286
1.492359 12.422108 14.786299
2.865625 3.351179 5.900500
2.883518 3.749238 5.870959
2.675841 8.435864 9.079909
2.632859 9.094262 8.865810
2.870484 4.171363 5.706193
2.876354 4.560837 5.609682
2.854153 3.472908 5.055191
2.860271 3.781856 4.986177
2.892965 5.039999 5.443575
2.921044 5.473779 5.354203
2.889993 4.221123 4.849859
2.894398 4.553231 4.718993
2.909451 4.850087 8.158294
2.887847 5.367363 8.065390
2.900394 3.882132 6.971503
2.904185 4.330841 6.940855
2.837585 5.890807 7.815040
2.746396 6.251372 7.470751
2.885224 4.826282 6.773578
2.890369 5.299440 6.697018
2.726051 6.852549 7.226259
2.737912 7.478502 7.126392
2.898788 5.871457 6.522960
2.760347 6.017838 6.079522
2.716770 7.342792 11.950798
2.684257 8.211925 11.970710
2.891692 5.796636 10.039453
2.752116 6.192255 9.570939
2.613605 9.075097 11.711864
2.423256 9.368587 10.909116
2.728213 6.951124 9.423844
2.704321 7.606288 9.355358
2.608746 11.488911 16.715676
2.192167 10.424297 14.259069
1.826752 9.430644 11.944521
1.769586 10.002993 11.800713
2.302440 9.031068 11.763096
2.212867 9.361425 11.432514
1.952224 12.331134 13.355075
1.916085 13.292481 13.387855
2.062529 25.158023 34.573415
2.799730 17.295817 25.584315
2.897933 20.270956 27.645662
2.894403 22.871895 28.865541
2.732617 24.355614 28.485523
1.386914 12.941743 14.357411
2.604212 11.443022 16.704712
2.193836 10.412655 14.288165
1.822668 9.390097 11.931920
1.980077 11.336735 13.319504
2.303164 9.017410 11.782012
2.224948 9.401762 11.513070
1.949099 12.290488 13.353084
1.908684 13.216414 13.355149
2.561964 11.981404 13.390517
2.059743 25.072673 34.569663
2.798246 17.248784 25.600104
2.896965 20.223822 27.671221
2.894628 22.832639 28.907771
2.730740 24.297495 28.507351
1.389217 12.947606 14.406933
2.412387 28.668106 28.899518
2.605990 11.403006 16.755290
1.821271 9.348428 11.953807
1.987180 11.344738 13.408573
2.299400 8.967680 11.791884
2.244651 9.461022 11.650532
1.945388 12.227234 13.367338
1.912719 13.211012 13.429869
2.559725 11.932016 13.418067
2.247878 23.694865 34.156464
2.056086 24.928250 34.596873
2.795776 17.158085 25.636211
2.897078 20.144959 27.742736
2.896535 22.766386 29.007487
2.723155 24.144602 28.508342
2.409983 28.559502 28.969893
2.866860 3.312212 5.930300
2.894440 3.724713 5.923380
2.677570 8.378054 9.154795
2.655174 9.118426 9.018184
2.848154 4.096847 5.695895
2.883178 4.534776 5.659620
2.851377 3.435288 5.078516
2.858344 3.745705 5.013496
2.901714 5.020104 5.500458
2.920652 5.437086 5.397556
2.895281 4.197436 4.892523
2.893284 4.520183 4.753908
2.909591 4.792414 8.198283
2.887397 5.309377 8.107822
2.894065 3.824051 6.987746
2.899924 4.275313 6.965811
2.856221 5.878353 7.915621
2.749515 6.207129 7.530147
2.889261 4.786578 6.822311
2.888106 5.248454 6.734655
2.725047 6.799714 7.279025
2.742190 7.442450 7.198188
2.900150 5.829580 6.573483
2.766918 5.992428 6.142539
2.720395 7.266905 12.028543
2.685940 8.131211 12.046570
2.888874 5.718100 10.076867
2.752476 6.124621 9.623016
2.542113 8.715866 11.445144
2.404555 9.209903 10.896372
2.725090 6.875215 9.469415
2.703726 7.538092 9.415332
2.608019 11.363921 16.807540
2.036658 9.510474 13.274922
1.820976 9.313015 11.983369
1.987245 11.307389 13.447377
2.387282 9.309295 12.292027
2.291857 9.647299 11.937331
1.937967 12.137901 13.354100
1.903097 13.099436 13.402269
2.108144 9.610058 10.995236
2.518865 12.641058 13.396467
2.245890 23.575863 34.211374
2.050436 24.756782 34.586549
2.791621 17.056104 25.655667
2.893556 20.038555 27.777309
2.895954 22.678593 29.080692
2.712463 23.961953 28.474046
1.385926 12.834028 14.459105
1.826072 9.325474 12.035047
1.868124 10.530660 12.610157
2.390602 9.305859 12.325347
2.291428 9.628347 11.951093
1.933670 12.089197 13.342991
1.902719 13.078034 13.421566
2.095738 9.531975 10.943492
2.248870 23.562120 34.304144
2.047832 24.674107 34.585146
1.577377 9.027859 13.916128
2.892114 19.987715 27.797652
1.855297 27.294643 33.885694
2.895295 22.631506 29.113287
2.715629 23.952132 28.551109
1.390723 12.866617 14.537974
2.426429 28.654845 29.333185
0.429242 8.978900 13.879964
1.828826 9.307358 12.086000
1.982361 11.219599 13.469384
2.396365 9.295066 12.387244
2.254181 9.422219 11.780798
1.932512 12.043943 13.375232
1.893461 12.969663 13.395857
2.092776 9.486335 10.958902
2.503235 12.498881 13.372843
2.246864 23.442755 34.358430
2.044537 24.534730 34.617282
1.573660 8.963997 13.911488
2.892706 19.911930 27.873295
1.852262 27.154879 33.928021
2.894991 22.545853 29.189063
2.872049 25.362075 30.378121
2.429706 28.618274 29.476981
0.429040 8.941876 13.914840
2.860449 3.263342 5.944049
2.888134 3.675074 5.940841
2.684806 8.338692 9.249014
2.612334 8.891389 8.940601
2.847826 4.057513 5.728422
2.878524 4.488213 5.687270
2.849434 3.398625 5.102968
2.853153 3.704614 5.034967
2.899238 4.978275 5.536302
2.923003 5.405711 5.445573
2.889364 4.155475 4.916660
2.894525 4.490960 4.792264
2.916492 4.746571 8.257389
2.879839 5.236639 8.129370
2.890397 3.769793 7.009966
2.905394 4.235503 7.013833
2.872729 5.859895 8.010402
2.746464 6.146870 7.571992
2.886973 4.734934 6.855690
2.874752 5.174918 6.745865
2.726533 6.753356 7.338186
2.738765 7.382489 7.249221
2.902112 5.788606 6.625081
2.775824 5.972036 6.210673
2.717267 7.170419 12.074092
2.687286 8.048682 12.120248
2.889280 5.646296 10.125341
2.748405 6.045639 9.658419
2.545913 8.648388 11.535420
2.427296 9.230731 11.082582
2.728370 6.816836 9.537612
2.705182 7.475780 9.482218
2.597414 11.191957 16.831442
1.836393 9.316483 12.171125
1.779635 9.900632 12.041310
2.630139 10.248351 13.677363
2.241112 9.328526 11.741031
1.926469 11.964536 13.371186
1.891602 12.918351 13.425614
2.096749 9.475437 11.012327
2.245278 23.327815 34.419016
2.038374 24.356903 34.595481
1.574884 8.932414 13.954731
2.889348 19.806520 27.908580
1.848795 27.007564 33.960625
2.895002 22.462403 29.267861
2.876696 25.320392 30.518744
2.436065 28.620388 29.660737
0.428846 8.904721 13.949754
2.597026 11.141233 16.866639
1.839582 9.300293 12.225260
1.775798 9.842775 12.046931
2.638179 10.242845 13.754860
2.257747 9.371525 11.862891
1.740880 10.639829 12.032392
2.112168 9.521571 11.128773
2.487173 12.335945 13.366265
2.244467 23.221769 34.492249
2.035613 24.224748 34.636172
2.786334 16.759736 25.810798
2.887721 19.713948 27.961097
1.845768 26.867841 34.001829
2.896173 22.388497 29.358861
2.875472 25.222743 30.593689
1.124868 65.212182 90.479550
2.594909 11.106865 16.871134
1.843801 9.307000 12.271036
1.763427 9.748127 11.973759
2.644081 10.247844 13.803867
2.273979 9.429018 11.967305
1.921608 11.874854 13.395604
2.515016 11.516746 13.368220
2.479846 12.277330 13.345919
2.246948 23.201338 34.576642
2.032317 24.133173 34.620588
2.786725 16.724680 25.843866
2.887234 19.669940 27.990543
1.842661 26.771712 33.989563
2.894043 22.328775 29.375220
2.874531 25.170621 30.627295
2.367383 27.621488 28.915202
1.124063 65.090995 90.609540
2.860922 3.223043 5.971603
2.887073 3.632782 5.968521
2.679849 8.256434 9.299127
2.659866 9.009578 9.182916
2.846766 4.016782 5.759171
2.875306 4.443983 5.717285
2.853313 3.369417 5.137314
2.855308 3.674020 5.068619
2.894660 4.932227 5.567811
2.917130 5.357083 5.478394
2.873044 4.096940 4.923168
2.891059 4.453312 4.822921
2.913254 4.682108 8.286749
2.885411 5.190233 8.188154
2.896036 3.728659 7.054576
2.916052 4.203555 7.074239
2.866949 5.790464 8.041506
2.743415 6.086345 7.613310
2.882158 4.678523 6.882555
2.884818 5.148173 6.811544
2.726028 6.701040 7.391523
2.739674 7.335182 7.311397
2.905874 5.751135 6.680541
2.784144 5.949554 6.277513
2.719473 7.089140 12.143970
2.687618 7.962135 12.188468
2.891527 5.578013 10.179989
2.759850 6.004264 9.749983
2.554857 8.599465 11.650197
2.463726 9.307821 11.336649
2.729944 6.753118 9.599185
2.705410 7.409116 9.544161
2.146635 8.982898 13.852500
2.611156 12.257574 17.444999
1.851799 9.317580 12.359624
1.755256 9.663362 11.947264
2.644905 10.211474 13.842518
2.244813 9.261798 11.838804
1.914201 11.786257 13.380488
2.473102 12.203099 13.349007
1.006944 9.071865 13.987532
2.027480 23.973420 34.621442
2.784959 16.637942 25.884893
2.885943 19.579473 28.045981
1.837446 26.595967 33.984687
2.894645 22.249555 29.459700
2.871426 25.054729 30.680460
2.341340 27.210978 28.671496
-0.144058 9.128840 13.952501
2.147525 8.947086 13.888998
2.618773 12.245837 17.539766
1.853674 9.293216 12.404554
1.751633 9.607296 11.953479
2.647454 10.182199 13.890348
2.250896 9.255796 11.903063
1.913832 11.746360 13.417563
2.512170 11.426375 13.428874
2.467625 12.135842 13.358769
1.001871 8.976459 13.936563
2.024466 23.838024 34.655823
2.781143 16.538030 25.905470
2.884637 19.488860 28.100979
1.834124 26.451550 34.018057
2.894050 22.160324 29.531160
2.813803 24.427477 30.117564
2.331880 27.013300 28.643551
-0.141827 9.020767 13.883657
2.148577 8.931895 13.911401
2.627751 12.266035 17.623439
1.855707 9.287107 12.434888
1.748378 9.570253 11.945965
2.659996 10.214388 13.975608
2.242978 9.202911 11.874923
1.912283 11.716955 13.425849
1.930806 13.067149 13.900319
2.510663 11.399780 13.439532
2.459028 12.070698 13.330638
1.003104 8.971240 13.973980
2.021527 23.751425 34.645881
2.782894 16.511479 25.951579
2.882090 19.429653 28.108921
1.831101 26.357065 34.006364
2.892953 22.108959 29.558140
2.796702 24.224712 29.966992
2.327219 26.915318 28.630006
-0.141765 8.994414 13.889650
2.857574 3.177819 5.990894
2.886013 3.590289 5.995861
2.681973 8.198063 9.374219
2.650546 8.910035 9.222709
2.847906 3.979234 5.794015
2.877827 4.409395 5.758161
2.845552 3.324808 5.150951
2.852569 3.636137 5.093628
2.895693 4.896513 5.609573
2.916741 5.319431 5.520827
2.871933 4.062430 4.954384
2.889163 4.418151 4.855758
2.906076 4.610576 8.304043
2.875124 5.111774 8.200595
2.883734 3.661898 7.054649
2.884563 4.103925 7.031410
2.860644 5.719739 8.070443
2.742938 6.031893 7.661401
2.885565 4.636608 6.928784
2.885641 5.102486 6.855221
2.727018 6.652371 7.448605
2.741064 7.288794 7.374545
2.904237 5.701420 6.723247
2.798299 5.940263 6.357518
2.720260 7.003142 12.206534
2.687614 7.873910 12.254406
2.889178 5.499556 10.217254
2.766862 5.951166 9.825120
2.652173 8.879834 12.195481
2.513832 9.439579 11.659925
2.729386 6.683047 9.652450
2.704820 7.339456 9.602581
2.590493 10.889618 16.990335
2.628734 12.194279 17.692595
2.084572 10.515739 14.127105
1.742747 9.485071 11.953163
2.667574 10.185201 14.068006
2.239203 9.135122 11.899995
1.911150 11.652839 13.476735
1.933712 13.031298 13.988991
2.516514 11.371097 13.529037
2.450060 11.966031 13.340104
2.264945 23.010516 35.222209
2.012786 23.493318 34.616430
2.781851 16.391241 26.027681
2.881094 19.300300 28.200427
1.825606 26.132096 34.043848
2.893030 21.982375 29.674981
2.787651 24.013156 29.991587
2.316931 26.668931 28.636903
-2.835835 64.392207 90.964372
2.586453 10.846468 16.981071
2.622335 12.136354 17.668237
2.086365 10.505608 14.157864
1.741563 9.460977 11.960559
2.669717 10.173737 14.096751
2.259588 9.210040 12.028133
1.904321 11.587356 13.444959
2.495045 11.246245 13.427903
2.459564 11.997925 13.413812
2.265934 22.971708 35.281750
2.011950 23.434333 34.645197
2.777999 16.328812 26.018325
2.880451 19.254798 28.227573
1.822818 26.041593 34.036118
2.892964 21.939243 29.712790
2.786726 23.962068 30.023222
2.525111 24.564212 28.555039
0.462399 10.032499 16.267827
2.584339 10.812129 16.984963
2.627638 12.137383 17.726224
2.087722 10.492973 14.185480
1.740586 9.438162 11.969433
2.674459 10.172922 14.139722
2.274144 9.258374 12.124233
1.902970 11.559323 13.454399
2.503387 11.268043 13.493389
2.444855 11.900432 13.350447
2.277117 23.046162 35.512935
2.009804 23.358322 34.649175
2.779242 16.298702 26.059174
2.878224 19.197854 28.238291
1.819954 25.949953 34.026607
2.890545 21.876868 29.725027
2.793405 23.981529 30.141390
2.518881 24.458572 28.523182
0.462029 10.000479 16.271887
2.863402 3.143633 6.028975
2.889447 3.553783 6.032105
2.684489 8.140361 9.450361
2.639727 8.804793 9.255987
2.846848 3.938022 5.824127
2.874613 4.364707 5.787475
2.847770 3.292988 5.181849
2.856357 3.607337 5.129621
2.901635 4.869582 5.660482
2.916353 5.281452 5.562958
2.870023 4.026445 4.983970
2.885699 4.380094 4.885754
2.900028 4.541018 8.323986
2.885619 5.074198 8.272956
2.890705 3.622033 7.101834
2.879016 4.045970 7.051190
2.869721 5.682653 8.143327
2.750686 5.997158 7.732571
2.882019 4.582027 6.957822
2.886465 5.056440 6.898553
2.730496 6.609939 7.512313
2.742936 7.243297 7.438688
2.902601 5.651397 6.765535
2.813034 5.931467 6.439044
2.723180 6.922635 12.278605
2.688289 7.787345 12.322935
2.890509 5.428498 10.267442
2.788936 5.933095 9.955774
2.661403 8.826187 12.314197
2.513695 9.355791 11.737233
2.727978 6.610264 9.702001
2.707919 7.280454 9.674121
2.580641 10.721160 17.014371
2.626787 12.055888 17.781849
1.733099 9.341735 11.961978
2.668754 10.088207 14.159191
2.291998 9.286327 12.269873
1.898322 11.471246 13.477785
1.824766 12.115653 13.252108
2.125010 9.362696 11.420793
2.429525 11.762225 13.322487
2.005169 19.890239 31.045191
2.005187 23.154199 34.694708
2.777864 16.175841 26.130892
2.876125 19.059966 28.317214
1.814553 25.726797 34.063222
2.890183 21.745830 29.836042
2.864578 24.510505 31.081938
2.508266 24.227715 28.523843
0.460584 9.891673 16.263270
2.582381 10.704198 17.044627
2.102952 10.496143 14.366827
1.729642 9.303734 11.952243
2.674650 10.091846 14.208509
2.290185 9.260715 12.275297
1.899709 11.461747 13.507805
1.824952 12.098682 13.274117
2.146682 9.452192 11.558536
2.435206 11.773454 13.374488
2.004725 19.841456 31.074849
2.003307 23.081686 34.703062
1.785571 9.913205 16.307689
2.876276 19.019959 28.352177
1.811314 25.629352 34.045042
2.889531 21.697666 29.867091
2.865271 24.472763 31.132970
2.504655 24.150009 28.522760
0.460493 9.870396 16.283982
2.577140 10.655806 17.026581
2.100600 10.462618 14.367606
1.731562 9.298706 11.982311
2.686317 10.118912 14.289679
2.271455 9.159728 12.186247
1.901291 11.453504 13.539316
1.828085 12.103740 13.319089
2.173139 9.564581 11.723607
2.433243 11.744096 13.382909
2.001690 23.012564 34.716237
1.801345 9.988481 16.481883
1.475972 9.006662 13.846146
1.809448 25.553876 34.055218
2.889172 21.651831 29.901268
2.864743 24.423688 31.169948
2.497936 24.039760 28.483724
0.463354 9.962859 16.485887
0.334794 9.040612 13.840663
2.862291 3.092416 6.057252
2.886080 3.499369 6.059649
2.682946 8.054944 9.524276
2.644575 8.744761 9.359795
2.847922 3.891833 5.864494
2.864876 4.300972 5.810329
2.844113 3.246454 5.207240
2.848665 3.555212 5.151090
2.899788 4.820095 5.703937
2.918625 5.240936 5.618149
2.882450 4.005676 5.043926
2.890012 4.348432 4.935033
2.907412 4.482441 8.390217
2.883995 5.000546 8.317722
2.884319 3.553464 7.121277
2.890251 4.004053 7.118408
2.869155 5.612310 8.197047
2.750112 5.930664 7.789270
2.884716 4.528396 7.008960
2.887206 5.000238 6.949396
2.726905 6.537517 7.566343
2.738925 7.169647 7.497804
2.901476 5.592763 6.817609
2.828255 5.913990 6.531409
2.718515 6.802377 12.325103
2.685107 7.669924 12.384771
2.890360 5.339085 10.320379
2.811337 5.899643 10.097624
2.671763 8.757499 12.452878
2.493634 9.171707 11.729697
2.729016 6.529721 9.770752
2.708848 7.200482 9.748952
2.578982 10.589507 17.093560
2.620948 11.897586 17.842243
2.106837 10.435208 14.466204
1.742274 9.313408 12.109415
2.675708 10.013823 14.281600
2.320913 9.326636 12.509189
1.671943 9.853957 11.842855
1.835444 12.103153 13.438273
2.190238 9.597510 11.868271
2.147191 10.180261 11.800315
2.238621 22.221379 35.200578
1.995429 22.787507 34.728262
1.785035 9.815990 16.371715
3.455423 22.952648 34.520073
1.803760 25.326440 34.083083
1.631542 27.854826 34.697810
2.887199 21.506940 29.993571
2.862461 24.269930 31.272454
0.459405 9.757447 16.322242
0.335622 9.068670 14.015525
2.577113 10.556252 17.098599
2.619370 11.863865 17.851237
2.114077 10.454185 14.536739
1.743158 9.301754 12.131866
2.326030 9.331373 12.553508
1.687420 9.941386 11.978200
1.831027 12.051614 13.424153
2.168279 9.474579 11.759702
2.446268 11.736520 13.535839
2.245247 22.243642 35.355004
1.998001 22.771749 34.820640
1.784013 9.786103 16.378774
1.477566 8.939509 13.925945
1.802279 25.257114 34.100615
1.611340 27.415643 34.269509
2.887577 21.466787 30.035504
2.862070 24.221884 31.310670
0.459645 9.748671 16.363172
0.334868 9.006137 13.968666
2.571154 10.504846 17.075123
2.618710 11.834659 17.866709
2.114995 10.438399 14.561224
1.745903 9.301339 12.168206
2.572950 9.557429 13.745385
1.674177 9.835920 11.893491
1.840600 12.104110 13.519903
2.153504 9.386647 11.691578
1.781974 9.749927 16.375609
2.873054 18.749633 28.517622
1.799962 25.174582 34.100442
1.603520 27.218972 34.135960
2.886926 21.418342 30.066092
2.859781 24.156474 31.326880
0.459417 9.721940 16.375179
2.861242 3.049398 6.080264
2.888019 3.460232 6.092150
2.683894 7.990654 9.593622
2.688663 8.841438 9.594371
2.845402 3.847909 5.890898
2.876003 4.279843 5.867436
2.849658 3.218287 5.243550
2.854901 3.529241 5.190850
2.895917 4.774298 5.735309
2.917553 5.200841 5.658371
2.872542 3.956824 5.059362
2.885767 4.308541 4.963099
2.901370 4.412505 8.408988
2.883558 4.940616 8.357266
2.893284 3.515446 7.172773
2.882765 3.942675 7.132431
2.859147 5.532853 8.213354
2.780462 5.948648 7.925595
2.884966 4.479845 7.046393
2.880027 4.938088 6.972549
2.726903 6.484750 7.619398
2.746087 7.138474 7.575934
2.902243 5.547135 6.864701
2.842397 5.901885 6.611990
2.723570 6.726510 12.406026
2.687817 7.588655 12.461708
2.890318 5.264339 10.364233
2.833840 5.879017 10.230446
2.673282 8.673099 12.532967
2.529998 9.237676 11.988430
2.731448 6.466184 9.833453
2.710310 7.135273 9.813429
2.451048 9.900547 16.290438
2.052917 8.990134 13.876778
2.132993 10.473653 14.746220
1.753714 9.297060 12.274150
2.629005 9.722798 14.105122
2.760835 11.167458 15.068223
1.669219 9.753103 11.905329
1.832862 11.990482 13.520336
2.176185 9.445735 11.867931
1.980963 19.187138 31.000172
1.997720 22.573400 34.988440
1.774836 9.635368 16.355330
2.870965 18.610620 28.594311
1.794670 24.953635 34.133987
1.596693 26.954424 34.131836
2.886720 21.286745 30.176659
2.858048 24.006995 31.434337
2.481733 23.552536 28.622466
0.458150 9.619788 16.374947
0.466264 65.126036 90.592590
2.451355 9.878166 16.309458
2.052992 8.970544 13.892650
1.757490 9.302507 12.318354
2.654226 9.803401 14.261914
2.772016 11.194649 15.150050
1.665942 9.714687 11.896643
1.830472 11.954023 13.521807
2.180556 9.449829 11.908708
2.274802 10.745749 12.640660
1.127705 9.945600 16.421774
0.906312 8.786655 14.102203
1.775172 9.613877 16.375673
2.869062 18.555746 28.607041
1.793042 24.882024 34.147592
1.596714 26.910639 34.185164
2.886951 21.245079 30.216671
2.857387 23.956244 31.468991
-0.236806 8.922283 13.910115
0.457429 9.574353 16.355985
2.453345 9.863137 16.340219
2.053984 8.955390 13.915071
2.634149 13.144590 18.463527
1.761265 9.307840 12.362604
2.662715 9.816676 14.325686
2.798160 11.287024 15.316622
1.663057 9.678919 11.890883
2.176951 9.415694 11.903887
1.123681 9.879492 16.371499
0.902502 8.719642 14.045879
1.771611 9.568537 16.356822
2.867476 18.503081 28.622990
1.790579 24.797357 34.143382
1.595247 26.838001 34.202561
2.886449 21.197536 30.248514
2.856321 23.901772 31.498833
-0.240376 8.970772 14.027017
0.456546 9.522782 16.326659
2.865543 3.012429 6.114280
2.881726 3.409901 6.107128
2.687983 7.936130 9.674292
2.692507 8.787854 9.680875
2.845814 3.808163 5.922974
2.861326 4.215550 5.872483
2.852709 3.186672 5.275193
2.852983 3.491679 5.216049
2.895551 4.734663 5.773157
2.912374 5.152337 5.690433
2.873035 3.923733 5.092185
2.887012 4.277583 4.999917
2.898710 4.348152 8.437202
2.884215 4.882445 8.399587
2.884981 3.454026 7.180650
2.885650 3.896981 7.171802
2.866105 5.489466 8.279020
2.777930 5.886894 7.966594
2.871948 4.408451 7.050593
2.887628 4.903900 7.031184
2.728393 6.435483 7.676337
2.741711 7.073190 7.621440
2.899413 5.493574 6.902845
2.861202 5.899626 6.703643
2.720463 6.627679 12.446976
2.687824 7.498204 12.524777
2.891197 5.191064 10.410948
2.855450 5.854652 10.360187
2.670950 8.574191 12.593199
2.529863 9.151251 12.064210
2.732604 6.398741 9.890891
2.709727 7.063524 9.869690
2.449208 9.773639 16.361465
2.606545 11.567113 17.938945
2.620853 12.992793 18.432370
1.767003 9.289814 12.453367
2.482562 9.038954 13.366428
2.781253 11.147020 15.277100
1.654007 9.569289 11.869925
2.175700 9.359016 11.943790
1.121769 9.790766 16.394343
0.905869 8.704409 14.160841
1.768209 9.477189 16.372941
2.864604 18.358199 28.690121
1.786442 24.594600 34.198837
2.886686 21.068468 30.362976
2.852968 23.736943 31.586067
-0.238087 8.852336 13.986190
0.455971 9.446940 16.368144
0.353354 10.184389 16.169445
2.446390 9.737542 16.358351
2.609553 11.555500 17.980337
2.620202 12.962592 18.449670
1.769537 9.287357 12.488373
2.499134 9.085326 13.474463
2.779408 11.116909 15.285272
1.650734 9.531119 11.860787
2.172097 9.324950 11.938723
2.392544 11.265011 13.416821
1.120510 9.754537 16.391135
0.903106 8.650747 14.124248
1.764311 9.430020 16.350327
2.863178 18.306580 28.707374
1.785578 24.534876 34.227870
2.885744 21.017255 30.389646
2.852716 23.689620 31.625029
-0.315125 10.373272 16.319378
0.455419 9.407941 16.359049
0.354457 10.247895 16.319270
2.436420 9.646747 16.321309
2.610061 11.505576 18.023289
2.617364 12.893979 18.472696
2.476910 8.958714 13.379973
2.776542 11.060289 15.306037
1.646914 9.472909 11.863396
2.170464 9.283326 11.960409
2.394474 11.236824 13.465658
1.118578 9.688457 16.394569
2.015518 22.400553 35.675568
1.763794 9.379790 16.378271
2.862051 18.215269 28.759851
1.783375 24.408303 34.275773
2.885605 20.928486 30.462179
2.850973 23.583913 31.688306
0.454908 9.352552 16.378304
0.353183 10.136467 16.256004
-3.488778 65.300767 90.337656
2.862204 2.966375 6.131763
2.882920 3.369349 6.137396
2.688147 7.868017 9.739813
2.700485 8.748468 9.782633
2.845494 3.767085 5.953225
2.868869 4.187731 5.921939
2.852437 3.150701 5.300582
2.854327 3.458380 5.246740
2.891684 4.688441 5.803754
2.914729 5.118412 5.736515
2.871129 3.886776 5.120600
2.887474 4.245032 5.035197
2.901680 4.292827 8.481726
2.882689 4.819845 8.434936
2.881994 3.399625 7.201375
2.882057 3.841267 7.194576
2.865643 5.429832 8.322404
2.816483 5.921388 8.127883
2.870307 4.356376 7.082378
2.879223 4.839068 7.050350
2.726405 6.376659 7.722847
2.745507 7.031069 7.689586
2.902579 5.452229 6.954972
2.880584 5.897631 6.796995
2.724811 6.548542 12.523316
2.686482 7.403064 12.580458
2.884270 5.102131 10.427741
2.877054 5.828618 10.490126
2.679211 8.512408 12.705856
2.581086 9.271865 12.401029
2.734612 6.332998 9.951063
2.709964 6.993707 9.928503
2.435355 9.594536 16.346708
2.608289 11.444545 18.049658
2.619546 12.852009 18.532755
2.488715 8.966413 13.476481
2.775348 11.010795 15.336223
1.644275 9.422446 11.875043
2.156619 9.184080 11.911376
2.380897 11.128721 13.423544
1.116163 9.617251 16.389356
1.758375 9.300077 16.356438
2.859203 18.111915 28.793742
1.780513 24.271151 34.308761
2.886364 20.846304 30.544408
2.848306 23.469609 31.740226
2.229121 24.605420 28.592819
0.453861 9.276833 16.363045
0.352256 10.048371 16.227581
2.387118 9.363691 16.022555
2.609693 11.424932 18.079359
2.613236 12.791601 18.507774
2.494040 8.967809 13.521549
2.614818 10.299320 14.436435
1.641395 9.387013 11.868568
2.145049 9.112745 11.859732
2.095844 9.647673 11.767290
1.114415 9.575991 16.377250
1.757529 9.271429 16.364281
2.859359 18.071008 28.827319
1.778743 24.197341 34.317751
2.884837 20.790307 30.564140
2.849138 23.431643 31.791524
2.229172 24.566856 28.637560
0.453447 9.243094 16.362194
0.351922 10.013107 16.226661
2.391100 9.333993 16.082609
2.604021 11.345299 18.077030
1.997970 9.482197 13.969806
2.503816 8.966873 13.606769
2.596194 10.177987 14.364043
1.637580 9.328996 11.870544
1.815583 11.618389 13.643708
2.189640 9.287957 12.149188
2.141057 9.845535 12.065905
1.113374 9.519459 16.395386
1.793302 19.425994 31.564794
1.754307 9.205081 16.364191
2.856341 17.966488 28.858864
1.777608 24.086969 34.387205
2.884700 20.700942 30.635995
2.848346 23.333878 31.865103
2.214614 24.312047 28.523770
0.452913 9.186772 16.379156
0.351404 9.953459 16.241301
2.868800 2.931446 6.170112
2.890100 3.336276 6.180023
2.688704 7.800643 9.806312
2.710337 8.714797 9.891449
2.845908 3.726838 5.984681
2.861365 4.135066 5.940532
2.847180 3.108509 5.316590
2.850780 3.418242 5.268424
2.897626 4.659510 5.853498
2.917084 5.084090 5.782372
2.880420 3.866280 5.168231
2.890288 4.216037 5.074199
2.902962 4.234361 8.520783
2.866416 4.729826 8.425505
2.879009 3.345119 7.221645
2.879762 3.787349 7.220145
2.863593 5.366565 8.360566
2.838592 5.915492 8.241529
2.875617 4.315620 7.131133
2.872668 4.777677 7.073453
2.730383 6.332924 7.786265
2.744018 6.973280 7.742338
2.899752 5.398062 6.992289
2.890048 5.872086 6.867158
2.723130 6.452732 12.569688
2.690885 7.325039 12.663943
2.888828 5.035360 10.487095
2.879620 5.758514 10.547887
2.668223 8.381922 12.720922
2.658402 9.492373 12.874431
2.731512 6.253693 9.991268
2.712658 6.930440 9.996197
2.388602 9.276450 16.096783
2.601108 11.278771 18.094511
2.023981 9.579203 14.196309
2.503799 8.927418 13.636762
2.593643 10.125596 14.383474
1.632215 9.260925 11.860122
1.819817 11.610833 13.717531
2.199434 9.299057 12.237346
2.120916 9.708771 11.979823
1.111752 9.456747 16.403180
1.018271 9.881816 16.519500
1.751433 9.140823 16.367426
1.681663 9.940398 16.396097
1.778238 24.002974 34.493943
2.884435 20.610196 30.706079
2.848793 23.246596 31.952923
2.840447 26.561238 33.750885
2.208002 24.153800 28.518856
0.451871 9.111406 16.363170
0.350627 9.875555 16.227180
2.384177 9.210793 16.096957
2.605052 11.244546 18.161704
1.984241 10.346235 14.308526
2.502911 8.884524 13.661589
2.627348 10.226998 14.611549
1.632498 9.229607 11.893886
1.822018 11.588392 13.774908
2.206298 9.296118 12.308488
2.116027 9.650074 11.983259
1.108943 9.381830 16.389993
1.781496 19.105191 31.482909
1.754983 9.114444 16.435889
1.672621 9.832616 16.334561
1.777485 23.897844 34.570927
1.384289 9.029968 13.893388
2.849356 23.160189 32.041965
2.842790 26.489646 33.874876
0.451937 9.077072 16.417824
0.350113 9.816014 16.241320
0.239924 9.056419 13.866159
2.386892 9.198755 16.132027
2.598219 11.185971 18.130995
2.034583 9.573596 14.324645
2.496133 8.838587 13.638000
2.613338 10.146563 14.547870
1.635079 9.229644 11.930073
1.819818 11.553328 13.776810
2.209600 9.293897 12.343387
2.105199 9.578247 11.935160
1.107888 9.348001 16.389365
1.762259 9.133368 16.526357
1.670237 9.793210 16.326466
1.779956 23.888232 34.670717
1.382816 8.999154 13.892821
2.847890 23.101469 32.065585
2.841992 26.433788 33.911886
0.452393 9.075206 16.472101
0.349672 9.773451 16.228072
-0.341210 9.411119 13.991928
0.240135 9.130337 14.019301
2.857824 2.876574 6.170526
2.883814 3.285568 6.193878
2.686910 7.725164 9.863327
2.724695 8.696060 10.017552
2.845592 3.685285 6.014332
2.862461 4.096143 5.976337
2.849404 3.075201 5.345978
2.853757 3.386666 5.301549
2.902169 4.627621 5.900327
2.917387 5.045409 5.824027
2.873719 3.821708 5.187770
2.887616 4.177817 5.103723
2.888496 4.150564 8.511866
2.868175 4.673047 8.469549
2.882003 3.298056 7.256711
2.880709 3.737972 7.253518
2.862076 5.304128 8.399837
2.868910 5.927105 8.380040
2.874611 4.264010 7.163784
2.872887 4.728673 7.112854
2.729889 6.277135 7.836326
2.746375 6.925957 7.805763
2.903521 5.357112 7.045285
2.904175 5.856289 6.948488
2.728192 6.374106 12.648375
2.692590 7.238028 12.733465
2.879155 4.941000 10.492061
2.881746 5.686896 10.603498
2.668150 8.289532 12.790185
2.669166 9.442280 13.008720
2.732248 6.183804 10.045540
2.714127 6.863069 10.058771
2.388482 9.158302 16.174831
2.332414 9.891588 16.223311
2.484021 8.752534 13.598729
2.627394 10.163692 14.663213
1.641803 9.239483 12.014932
1.580408 9.800351 11.865698
2.213285 9.275696 12.396168
2.094479 9.490299 11.903461
1.105190 9.274340 16.377617
1.770721 9.134911 16.645294
1.666104 9.718766 16.316828
1.780439 23.800818 34.773761
1.383096 8.962116 13.927928
2.850101 23.028768 32.173729
2.841887 26.336759 34.004470
0.453089 9.063127 16.566882
0.348998 9.702315 16.223371
0.239614 9.033478 13.967042
2.390542 9.119681 16.220783
2.361340 9.978899 16.469257
2.490627 8.738432 13.665737
2.628153 10.124447 14.701608
1.645007 9.226390 12.071898
1.830107 11.549553 13.939540
2.221205 9.276820 12.473738
2.102049 9.494705 11.980353
1.103174 9.207905 16.377456
1.776634 9.121086 16.738200
1.664330 9.660221 16.332132
1.779914 23.698212 34.855047
1.383952 8.929389 13.969385
2.849179 22.928633 32.244426
2.841508 26.236956 34.093448
0.453801 9.051529 16.663305
0.348472 9.641866 16.235184
0.239292 8.990613 13.993790
2.401181 9.140261 16.312427
2.343092 9.870329 16.352315
2.012079 10.384136 14.629273
2.517550 8.821382 13.834289
2.652887 10.206767 14.862185
1.647197 9.223484 12.105115
1.827724 11.513053 13.939765
2.474528 10.423456 13.980505
2.097325 9.454010 11.968040
1.103104 9.184268 16.393748
1.008362 9.580469 16.475834
1.780861 9.121325 16.797769
1.662580 9.625192 16.330439
2.883061 20.242677 30.980094
2.848796 22.879067 32.280534
2.840835 26.182022 34.131605
0.454767 9.067578 16.750845
0.348191 9.610069 16.238525
-0.191198 65.218353 90.520924
2.865949 2.842794 6.211584
2.885011 3.244277 6.223212
2.685902 7.651774 9.922704
2.735289 8.662586 10.129430
2.846740 3.645584 6.046703
2.857110 4.046700 5.998473
2.850797 3.040653 5.373554
2.853473 3.350495 5.328508
2.898304 4.580582 5.929934
2.917689 5.006397 5.865348
2.867819 3.778244 5.208258
2.884945 4.139402 5.132876
2.883034 4.081244 8.529373
2.868296 4.612936 8.508170
2.879023 3.243233 7.276128
2.882304 3.689241 7.288127
2.862680 5.245713 8.444965
2.867909 5.865506 8.425320
2.873607 4.212163 7.195980
2.870030 4.673758 7.144143
2.725422 6.210867 7.874146
2.745849 6.870003 7.860442
2.886918 5.274460 7.047879
2.907805 5.816203 7.004627
2.724390 6.271966 12.682849
2.693956 7.149381 12.800620
2.874996 4.857162 10.517086
2.885643 5.618608 10.665343
2.666153 8.189987 12.848858
2.620421 9.157055 12.833822
2.736816 6.122994 10.114025
2.716004 6.796300 10.122406
2.410514 9.107254 16.426109
2.340731 9.788067 16.385415
1.960453 9.027029 13.893965
2.523421 8.783436 13.912280
2.649045 10.126138 14.891031
1.654925 9.221722 12.214084
1.582412 9.715503 11.982158
2.494710 10.455380 14.152034
2.088993 9.361490 11.965433
1.104263 9.127148 16.466505
1.013381 9.571930 16.630607
1.793869 9.123001 16.980060
1.657482 9.521324 16.326495
0.810606 9.037875 13.856719
1.548396 24.879987 34.280342
2.880239 20.086619 31.055424
2.849519 22.746325 32.410945
2.163166 46.307495 58.501139
4.874259 46.129206 60.230199
4.299504 48.534234 58.574421
0.455871 9.050096 16.898492
0.347247 9.508494 16.237809
-0.330317 9.037501 13.809747
2.420188 9.123073 16.511126
2.339642 9.759224 16.394150
1.957038 8.989562 13.883570
2.528740 8.783368 13.957591
2.644172 10.084314 14.879618
1.659061 9.230851 12.262978
1.830297 11.453024 14.039385
2.479946 10.367686 14.082216
2.088082 9.339990 11.975669
1.106944 9.131196 16.531191
1.007059 9.473949 16.524064
1.796403 9.112902 17.022369
1.654788 9.480197 16.314297
0.810301 9.014941 13.867715
1.547150 24.811764 34.298606
2.880622 20.044406 31.095400
2.850216 22.705785 32.459750
2.158829 46.131869 58.467654
2.840473 25.984916 34.313218
0.456430 9.050785 16.960043
0.346905 9.472600 16.234066
-0.337429 9.134150 13.995690
0.238814 8.965282 14.184556
2.426740 9.125835 16.573825
2.331922 9.700002 16.353872
1.955580 8.962168 13.887915
2.143083 11.027972 15.737146
2.535786 8.789698 14.012861
2.677471 10.200757 15.091022
1.662417 9.234910 12.305685
1.584125 9.694270 12.029505
2.498084 10.429997 14.207076
2.083107 9.298254 11.961404
1.110900 9.147951 16.618472
1.005242 9.429608 16.506454
1.802148 9.121024 17.097817
