# .PCD v.7 - Point Cloud Data file format
VERSION .7
FIELDS x y z
SIZE 4 4 4
TYPE F F F
COUNT 1 1 1
WIDTH 1662
HEIGHT 1
POINTS 1662
DATA ascii
2.783128 -7.128517 61.609822
2.568523 -3.730763 66.231804
2.792375 -1.407986 87.106517
2.582095 2.222641 99.974459
0.713759 1.112159 28.362796
1.875450 0.998915 32.524165
-1.886949 -7.130600 70.567027
0.641044 -7.602991 71.536907
-2.177814 -3.693630 67.070495
-4.211222 -2.444136 106.393218
-0.290037 0.677359 28.150151
1.656228 -1.273317 10.181302
1.619330 -0.967782 10.373997
2.743024 1.093555 28.466024
2.202103 0.038089 16.011001
2.782290 -7.318765 61.563385
2.565717 -3.934144 66.138005
2.796296 -1.682616 87.229691
2.584794 1.911754 100.090975
0.712033 1.017585 28.270439
1.869431 0.891463 32.411531
-1.434993 -9.164540 69.117509
-1.916123 -7.445677 71.535501
-2.187450 -3.917441 67.336153
-4.214225 -2.779582 106.465035
-0.290719 0.635158 28.192200
1.603239 -1.312851 13.099172
1.657385 -1.289664 10.188258
1.617988 -0.983613 10.363629
2.730079 1.040142 28.323621
2.172052 0.002616 15.772213
2.783608 -7.418351 61.580685
2.568481 -4.041690 66.206663
2.796433 -1.819481 87.228006
2.585438 1.755200 100.116909
0.711097 0.970159 28.219173
-1.916783 -7.560608 71.552646
-2.202338 -4.044397 67.752183
2.868932 -1.762031 6.304449
2.891759 -1.451920 6.575351
2.227385 -0.288404 9.984654
2.178414 0.214876 10.179433
2.811380 -1.018637 6.581869
2.696305 -0.675611 6.464595
2.862645 -0.819489 5.939899
2.723563 0.109698 6.853141
2.874166 -0.072884 6.235044
2.720107 -2.096557 8.354860
2.693349 -1.687912 8.610387
2.745102 -2.016995 7.013458
2.735067 -1.686779 7.250734
2.661541 -1.174202 8.843571
2.667948 -0.711627 9.201099
2.702948 -1.234036 7.422672
2.696664 -0.864761 7.648728
2.689018 -0.108117 9.608980
2.514241 0.332609 9.222122
2.685621 -0.362558 7.847880
2.683594 0.051663 8.064544
2.200094 -2.490162 10.692629
2.083591 -1.947447 10.672722
2.665803 -2.619482 10.088700
2.622888 -2.120878 10.413085
1.911651 -1.278504 10.273962
1.820249 -0.757091 10.308062
2.477133 -1.449622 10.264300
2.355698 -0.965610 10.163188
1.598602 -1.351209 13.053438
1.659984 -1.322564 10.204067
1.614761 -1.015048 10.338860
2.728710 0.950575 28.312972
2.151213 -0.053356 15.607717
2.784085 -7.611903 61.563175
2.570522 -4.252088 66.245663
2.798670 -2.094275 87.289953
1.821655 0.775415 67.968024
0.711649 0.883361 28.252174
4.242382 -0.305438 68.022397
-1.912710 -7.772655 71.405357
-2.222855 -4.288316 68.324077
-0.404684 -3.905662 104.251282
1.600986 -1.393040 13.073060
1.661437 -1.354861 10.211829
1.615332 -1.047198 10.341675
2.733886 0.865269 28.375596
2.126878 -0.109190 15.415222
2.784504 -7.805257 61.545018
2.570148 -4.458788 66.218107
2.801536 -2.369769 87.374978
0.715879 0.807424 28.492544
-1.445199 -9.767522 69.512562
-1.914982 -8.005349 71.468197
0.856764 -12.215386 106.847359
-2.207212 -4.477935 67.879343
1.608261 -1.417521 13.139411
1.661743 -1.370878 10.212730
1.613175 -1.062675 10.325245
2.973426 0.963601 31.059531
2.117701 -0.135867 15.342719
2.571991 -4.565493 66.259971
2.804173 -2.508620 87.456158
2.591190 0.973236 100.352814
0.717725 0.768011 28.596699
-1.445672 -9.880283 69.525949
0.855425 -12.354062 106.564696
-2.199178 -4.571496 67.651816
2.870552 -1.811172 6.299340
2.896313 -1.503918 6.580083
2.223953 -0.366299 9.969726
2.186566 0.139421 10.229207
2.815085 -1.069922 6.588252
2.696350 -0.725349 6.464385
2.864315 -0.865211 5.942229
2.728320 0.058331 6.872179
2.967531 -0.100495 6.459739
2.711831 -2.155778 8.315126
2.693457 -1.754474 8.602159
2.749848 -2.073738 7.015619
2.735811 -1.742941 7.244428
2.662151 -1.242750 8.841296
2.665979 -0.782773 9.192786
2.705537 -1.291976 7.425610
2.696116 -0.923732 7.645093
2.686109 -0.183121 9.601512
2.600983 0.297972 9.583414
2.686254 -0.423121 7.851996
2.684769 -0.010342 8.073814
2.206238 -2.579182 10.710946
2.077707 -2.025695 10.627193
2.131778 -2.231183 7.845259
2.619952 -2.199579 10.387892
1.914915 -1.359611 10.288600
1.857662 -0.840897 10.554265
2.478084 -1.529543 10.261788
2.364678 -1.045982 10.203650
-0.606895 -0.625851 69.062133
1.663788 -1.419444 10.223136
1.614040 -1.110939 10.329227
2.965668 0.813639 30.979340
2.572543 -4.877444 66.246864
2.806068 -2.921435 87.498486
2.594713 0.502460 100.495402
-1.429296 -10.115305 68.816303
-1.903577 -8.414168 71.059037
0.855884 -12.850999 106.468716
-2.199973 -4.891777 67.664613
-0.210402 -3.559372 71.385584
-0.605256 -0.734006 68.932146
-1.014398 1.571163 68.891655
1.665798 -1.436443 10.235776
1.615420 -1.127431 10.338435
2.968365 0.766550 31.011496
2.574747 -4.985152 66.298025
2.808295 -3.060626 87.564798
2.595276 0.344923 100.515129
2.027521 3.866882 102.000370
-1.823031 -8.226926 68.348479
0.856215 -13.019248 106.459398
-2.194925 -4.989033 67.520294
-0.208564 -3.659197 71.091235
-0.604966 -0.842106 68.915982
-1.018195 1.469866 69.112971
1.668661 -1.453969 10.254307
1.615985 -1.143681 10.341679
1.643733 0.045091 16.177943
2.575027 -5.089397 66.295167
2.811237 -3.200721 87.654869
2.597456 0.187880 100.602587
-1.818599 -8.318098 68.193506
0.857841 -13.212513 106.662342
-2.186178 -5.078966 67.272131
-0.206597 -3.757146 70.774772
2.873698 -1.861030 6.297469
2.893418 -1.553520 6.566011
2.252247 -0.440897 10.115062
2.174777 0.055441 10.172561
2.824618 -1.122469 6.609087
2.727710 -0.776322 6.546020
2.865988 -0.910976 5.944202
2.726699 -0.338743 6.713385
2.723586 0.004029 6.864624
2.883533 -0.166945 6.265764
2.681711 -2.200052 8.201496
2.697368 -1.822779 8.606765
2.753273 -2.129784 7.013630
2.738492 -1.799955 7.243294
2.653828 -1.308711 8.805783
2.665030 -0.853864 9.187786
2.708758 -1.350183 7.429980
2.712674 -0.984817 7.694279
2.687624 -0.257286 9.610889
2.660716 0.247131 9.834459
2.686296 -0.483764 7.853731
2.687100 -0.072152 8.086421
2.224357 -2.681319 10.794237
2.089210 -2.117207 10.682681
2.141504 -2.300437 7.872749
2.597244 -2.264360 10.275363
1.924829 -1.444303 10.343930
1.823687 -0.917526 10.327259
2.483258 -1.611366 10.278108
2.367595 -1.125702 10.214119
-0.606123 -1.167245 69.032410
1.669004 -1.501809 10.252480
1.616308 -1.191867 10.341320
2.790165 -8.686259 61.541081
2.006883 -4.253159 50.377141
2.815527 -3.617551 87.773842
2.600432 -0.285212 100.717488
2.028165 3.227336 102.044876
-1.819566 -8.644440 68.204377
-0.208031 -4.104554 71.059097
-0.607864 -1.277018 69.187547
1.670732 -1.518788 10.263010
1.617417 -1.208353 10.348420
2.007918 -4.334040 50.397379
1.711692 -2.451838 50.638387
3.798343 -5.106825 50.214938
2.602808 -0.443098 100.811957
-1.812824 -8.725298 67.971430
-2.345212 -5.825830 71.714517
-2.717880 -3.728569 70.476782
-0.209704 -4.231384 71.361245
1.671608 -1.535270 10.267597
1.616894 -1.224226 10.343621
2.013659 -4.424908 50.549030
2.817444 -3.894955 87.818118
2.602857 -0.601306 100.808207
-1.813654 -8.835999 67.992454
-2.350108 -5.948868 71.847872
-2.720074 -3.841674 70.527809
0.215773 -7.042609 72.030394
-0.208591 -4.334811 71.189804
2.871529 -1.917817 6.280553
2.892773 -1.613730 6.555572
2.280163 -0.533578 10.258067
2.181088 -0.037005 10.212316
2.823237 -1.183056 6.600835
2.816010 -0.842330 6.776445
2.866047 -0.965624 5.941685
2.724645 -0.400871 6.710605
2.725632 -0.058822 6.876311
2.906889 -0.220523 6.325366
2.663374 -2.263153 8.124673
2.694783 -1.901111 8.586011
2.761352 -2.199538 7.021649
2.737321 -1.866188 7.228606
2.663918 -1.393556 8.835912
2.666125 -0.939211 9.189531
2.705085 -1.417589 7.411932
2.696866 -1.053496 7.641535
2.682759 -0.347115 9.594993
2.648886 0.151557 9.794292
2.688719 -0.556369 7.862795
2.685971 -0.147299 8.087895
2.223143 -2.780072 10.767104
2.086696 -2.214226 10.652980
2.675009 -2.877198 10.072707
2.597850 -2.360109 10.261822
1.799877 -1.008361 10.166371
2.441190 -1.686073 10.074409
2.374167 -1.222302 10.240684
1.925005 -1.749417 12.021480
1.617491 -1.272551 10.344863
2.793359 -9.176330 61.533657
2.821399 -4.313086 87.921797
1.848483 -0.934823 69.060703
2.021105 2.413780 101.650652
-2.359454 -6.308455 72.095197
-2.714180 -4.166874 70.378384
0.216161 -7.342281 71.583412
-0.189525 -4.490742 67.986838
1.931282 -1.772300 12.063140
1.618873 -1.289222 10.353811
2.791282 -9.265329 61.466801
2.210967 -4.094988 25.756219
2.822393 -4.452235 87.943942
1.847636 -1.042911 69.020231
2.023113 2.257310 101.761328
-1.813008 -9.262421 67.939843
-2.358442 -6.419658 72.062366
0.216332 -7.457245 71.600734
-0.207000 -4.770512 70.977725
1.932447 -1.791846 12.069293
1.619984 -1.305801 10.360755
2.795867 -9.376562 61.558098
2.211809 -4.136606 25.760704
2.583172 -6.144191 66.408868
2.825231 -4.594221 88.027779
1.848595 -1.151449 69.055567
-1.840441 -9.487768 68.852290
-2.349040 -6.511464 71.794304
-2.620662 -4.269396 68.126157
0.216508 -7.577117 71.667636
2.875441 -1.968043 6.279633
2.886903 -1.661875 6.533327
2.245405 -0.613422 10.082271
2.164506 -0.121199 10.128710
2.834961 -1.236636 6.626318
2.737782 -0.887859 6.569435
2.869346 -1.011652 5.946525
2.720509 -0.452849 6.701310
2.726329 -0.111648 6.882820
2.912357 -0.268303 6.341615
2.592918 -2.275236 7.875402
2.691100 -1.965430 8.562802
2.766107 -2.256658 7.022315
2.738073 -1.922213 7.220896
2.665590 -1.462451 8.835764
2.665183 -1.010202 9.183313
2.707683 -1.475625 7.413421
2.699991 -1.113013 7.647839
2.671019 -0.422478 9.550761
2.638012 0.072131 9.755938
2.687579 -0.617096 7.859672
2.687732 -0.209459 8.097532
1.701445 -2.259771 7.895708
2.101887 -2.310389 10.728264
2.677011 -2.956995 10.062685
2.587451 -2.431567 10.202148
1.954500 -1.638473 10.511875
1.808625 -1.089536 10.220753
2.422317 -1.754106 9.978765
2.382351 -1.304110 10.275177
1.926841 -1.844017 12.024498
1.620311 -1.354105 10.359635
2.794161 -9.658377 61.464986
2.584768 -6.459418 66.416190
2.825225 -5.007681 87.994341
2.614699 -1.872156 101.257007
2.037766 1.636715 102.577415
-1.849116 -9.852487 69.117152
-2.448651 -7.092670 74.567669
-2.609867 -4.575446 67.857098
1.926019 -1.862116 12.016750
1.621422 -1.370743 10.366474
2.793253 -9.750946 61.425108
1.475223 -2.963376 16.308826
2.583493 -6.560010 66.367215
2.828306 -5.150716 88.085265
2.616474 -2.032002 101.322985
-1.847037 -9.952392 69.039264
-2.351166 -6.968537 71.831887
-2.609731 -4.681921 67.850903
-0.187618 -5.117533 67.752314
2.002765 -3.138920 14.931838
1.928622 -1.901284 12.030657
1.623362 -1.403812 10.378053
2.794961 -9.948473 61.429856
1.469745 -3.003850 16.230492
2.585801 -6.773358 66.406092
2.829094 -5.427918 88.088713
2.619116 -2.351579 101.420157
-1.858606 -10.223718 69.407822
-2.343303 -7.174276 71.598775
-2.587111 -4.861154 67.299476
-0.228628 -5.813314 74.763275
2.873262 -2.015047 6.263884
2.892212 -1.714196 6.538209
2.770506 -0.708175 12.745138
2.159746 -0.200999 10.107241
2.837948 -1.288378 6.629125
2.739262 -0.938562 6.571307
2.855505 -1.323204 5.748167
2.869404 -1.057301 5.943709
2.725672 -0.164832 6.885169
2.924051 -0.315442 6.372214
2.729189 -2.437256 8.318026
2.695021 -2.033756 8.565716
2.773513 -2.315691 7.029843
2.732379 -1.974762 7.194133
2.667265 -1.531392 8.835076
2.666278 -1.081458 9.184274
2.705261 -1.531848 7.399378
2.698232 -1.171657 7.638474
2.654862 -0.497380 9.488490
2.672166 0.006402 9.901067
2.689413 -0.677831 7.865626
2.690073 -0.271642 8.108602
2.229481 -2.954102 10.765426
2.685873 -3.043697 10.080401
2.602549 -2.522542 10.253305
1.935939 -1.707767 10.388132
1.810806 -1.169480 10.231026
2.476876 -1.862169 10.220305
2.387304 -1.385408 10.293380
1.991717 -3.169532 14.832081
-1.020511 -3.896212 104.193946
1.929250 -1.939169 12.030704
1.626130 -1.437539 10.395497
2.793820 -10.135601 61.364888
2.582903 -6.973044 66.297092
2.833309 -5.711742 88.203095
2.623014 -2.672921 101.564338
-1.849119 -10.398497 69.072662
1.124642 -14.773737 74.582399
-2.489938 -7.789107 75.692969
0.221893 -12.352978 106.854845
1.989867 -3.189916 14.812505
1.928996 -1.957672 12.026747
1.626970 -1.454145 10.400225
2.588982 -7.093118 66.452236
2.837408 -5.857864 88.326798
2.625130 -2.834087 101.643041
-1.847213 -10.498680 68.999922
1.124184 -14.879809 74.503211
-2.225474 -7.194638 68.282712
-2.621803 -5.234431 68.122433
0.222143 -12.506504 106.709168
1.987100 -3.231775 14.781052
1.623659 -1.962122 13.234751
1.932454 -1.997689 12.046240
1.631089 -1.488671 10.427337
2.585877 -7.291963 66.338257
2.837377 -6.134232 88.300082
2.625981 -3.153577 101.661721
1.093443 -1.234225 14.978385
1.891827 -0.733415 32.864916
-1.846597 -10.713568 68.958815
-2.230762 -7.424186 68.417015
-2.606149 -5.422033 67.736994
0.222573 -12.841492 106.673440
2.874132 -2.063576 6.254978
2.893797 -1.765087 6.533517
2.265659 -0.771207 10.184060
2.842394 -1.340598 6.635225
2.739320 -0.989121 6.569049
2.853095 -1.366561 5.737497
2.869464 -1.102920 5.940536
2.731008 -0.555737 6.732137
2.725695 -0.217880 6.888979
2.883625 -0.369365 6.279172
2.736053 -2.506665 8.326391
2.691343 -2.097699 8.541508
2.785555 -2.378194 7.049672
2.727976 -2.027676 7.170702
2.667366 -1.599719 8.828092
2.665343 -1.152340 9.176949
2.711004 -1.591148 7.409375
2.701363 -1.231292 7.643848
2.648041 -0.571045 9.462466
2.673148 -0.070101 9.910007
2.691842 -0.738674 7.873014
2.689532 -0.334383 8.109622
2.248681 -3.061198 10.850861
2.064404 -2.439223 10.481645
2.693368 -3.129380 10.091704
2.604025 -2.603079 10.244240
1.924977 -1.780521 10.311042
1.817472 -1.251274 10.270283
2.561830 -1.992332 10.600310
2.393879 -1.467628 10.318744
1.969651 -3.251612 14.628375
-0.601250 -3.322683 68.741236
-1.015699 -1.024085 69.103532
1.623938 -2.003565 13.232645
1.929675 -2.032854 12.022389
1.607047 -1.094037 10.748027
2.795498 -10.619496 61.308418
2.590479 -7.512409 66.436441
2.841366 -6.419212 88.404203
2.628703 -3.475447 101.753386
-2.232778 -7.645606 68.461118
-0.216725 -6.486073 72.850241
1.971389 -3.299600 14.633860
-0.603335 -3.546348 68.924380
-1.015243 -1.240626 69.084087
1.625909 -2.046584 13.246182
1.930293 -2.070613 12.021977
1.617562 -1.544962 10.323316
1.606555 -1.127140 10.742680
2.796972 -10.816146 61.304452
2.594020 -7.730401 66.506032
2.845628 -6.705549 88.519331
2.631232 -3.797622 101.839994
2.053850 -0.291773 103.430662
1.094133 -1.328005 14.984560
-2.223066 -7.832264 68.174517
-0.215834 -6.705388 72.721990
1.962664 -3.308950 14.557496
1.967024 -2.966529 15.450563
-0.606110 -3.665291 69.165545
-1.016344 -1.349675 69.151115
1.624662 -2.065915 13.232164
1.930324 -2.089323 12.019782
1.604233 -1.142977 10.724144
2.592185 -7.828655 66.439240
2.632931 -3.959531 101.898921
2.762111 -1.149988 49.798381
-2.331085 -8.264629 71.189843
-2.950250 -6.599353 75.975327
-0.215263 -6.813579 72.642692
2.877289 -2.113365 6.251081
2.890914 -1.814011 6.517462
2.293591 -0.853268 10.324257
2.829874 -0.241034 13.677167
2.843929 -1.392078 6.633510
2.739380 -1.039660 6.566397
2.853995 -1.410805 5.733709
2.869526 -1.148512 5.937009
2.721319 -0.607665 6.706630
2.729112 -0.270380 6.901766
2.883654 -0.417639 6.281397
2.732836 -2.568286 8.300561
2.657800 -2.142855 8.412582
2.790981 -2.436305 7.050696
2.726155 -2.081792 7.154306
2.667996 -1.668218 8.822491
2.666445 -1.223595 9.176798
2.711727 -1.648536 7.403849
2.703886 -1.290887 7.646854
2.653503 -0.644360 9.484336
2.656598 -0.150658 9.846569
2.691305 -0.799424 7.870381
2.688417 -0.397185 8.108239
2.254504 -3.152573 10.862460
2.084625 -2.541293 10.583952
2.699954 -3.214403 10.098509
2.614737 -2.691585 10.274724
1.985575 -1.905981 10.676490
1.818763 -1.331430 10.273358
2.600371 -2.098968 10.765868
2.376997 -1.540626 10.230254
1.947584 -3.330649 14.424302
1.958782 -3.003609 15.370626
-0.628095 -3.971107 71.039617
1.738905 -1.959354 10.691514
1.607660 -1.177659 10.748392
2.596941 -8.050795 66.539611
2.636764 -4.284575 102.033986
1.094457 -1.398327 14.985345
2.758674 -1.305219 49.726764
-2.210772 -8.116603 67.810305
-0.212766 -7.008973 72.252507
1.948849 -3.377350 14.425622
1.953677 -3.044359 15.318058
-0.627191 -4.190840 70.968980
1.733837 -1.987877 10.652072
1.609253 -1.211600 10.758625
2.594424 -8.250415 66.438652
1.705302 -4.490775 50.232713
2.638786 -4.607523 102.096048
1.098060 -1.448225 15.042789
2.754675 -1.459697 49.644637
-2.215898 -8.346401 67.937511
-0.209478 -7.188413 71.714385
1.942968 -3.390355 14.372637
1.942687 -3.053085 15.218140
-0.587630 -4.129000 67.624106
1.937859 -2.189380 12.059363
1.609014 -1.228216 10.755802
0.596949 -2.175200 8.095243
0.876129 -2.255376 7.941720
1.420709 -3.275795 15.538090
2.593663 -8.351598 66.400872
1.706601 -4.572614 50.266531
2.069074 -4.041292 25.933717
2.641826 -4.772606 102.209623
1.100820 -1.474282 15.087416
2.757628 -1.538475 49.699273
-2.216864 -8.456661 67.957162
-2.951392 -7.199129 75.972293
-0.208660 -7.290602 71.592558
2.877401 -2.161365 6.239612
2.899211 -1.867857 6.528405
2.261939 -0.928542 10.161735
2.844719 -0.345469 13.758776
2.844009 -1.443106 6.627695
2.752254 -1.092316 6.596929
2.876410 -1.461989 5.776403
2.869590 -1.194075 5.933129
2.717887 -0.659257 6.697599
2.725070 -0.324159 6.893482
2.884463 -0.465863 6.285089
2.735224 -2.634220 8.292912
2.634032 -2.192396 8.317543
2.805678 -2.501459 7.076735
2.738527 -2.144248 7.178268
2.655483 -1.730557 8.768504
2.665516 -1.294352 9.168370
2.712452 -1.705893 7.397875
2.702134 -1.349376 7.636113
2.646688 -0.717562 9.457167
2.662326 -0.225871 9.873699
2.690771 -0.860137 7.867276
2.691921 -0.459511 8.121680
2.258217 -3.241471 10.861813
2.100170 -2.640007 10.658155
2.692370 -3.283998 10.046311
2.056994 -2.268834 7.834167
1.981588 -1.985494 10.641060
1.823645 -1.413378 10.299472
2.599245 -2.181594 10.748571
2.441022 -1.648666 10.531296
1.931742 -3.085077 15.114479
-0.591328 -4.359626 67.948423
1.760063 -2.061809 10.826318
1.610099 -1.262136 10.761957
0.596812 -2.199524 8.086602
0.876018 -2.279575 7.934796
1.411542 -3.303976 15.411961
1.141280 -3.724878 26.010929
2.082180 -4.146809 26.102929
2.645200 -5.098894 102.322112
1.440828 -1.288349 69.048190
2.754095 -1.692803 49.624450
-2.212187 -8.655522 67.811340
-2.776364 -7.063910 71.759704
-0.208745 -7.522079 71.643121
1.927988 -3.126598 15.073481
-0.627845 -4.753587 71.047028
1.744484 -2.080491 10.714027
1.611173 -1.295963 10.767963
0.595904 -2.220512 8.062178
0.877063 -2.306557 7.941393
1.406374 -3.340204 15.336834
2.597779 -8.779807 66.448538
2.065199 -4.195396 25.854762
2.646429 -5.421731 102.347638
2.753592 -1.847929 49.609011
-2.264441 -9.047021 69.254135
-2.776106 -7.288945 71.739272
-0.211386 -7.795889 72.118811
1.920601 -3.139382 15.004926
-0.584939 -4.648586 67.417263
1.751333 -2.103698 10.758879
1.622394 -1.318181 10.852081
0.595073 -2.229429 8.042137
1.405187 -3.361345 15.316934
2.600381 -8.892413 66.503171
2.070115 -4.245267 25.916381
2.648668 -5.586504 102.425942
1.114488 -1.606433 15.307835
2.751622 -1.924682 49.567186
-2.224153 -9.017336 68.120134
-2.878861 -7.633340 74.197818
-0.232759 -8.279448 75.794930
2.872182 -2.205998 6.215246
2.894096 -1.915555 6.506108
2.273241 -1.009464 10.216323
2.849595 -0.452060 13.786516
2.849191 -1.495815 6.634406
2.770825 -1.146539 6.641946
2.882280 -1.508250 5.782661
2.865601 -1.238723 5.919796
2.725577 -0.711063 6.718170
2.724423 -0.377350 6.894173
2.884497 -0.514177 6.286564
2.740417 -2.702523 8.294034
2.666747 -2.278588 8.418779
2.814420 -2.562546 7.085822
2.738001 -2.199132 7.164682
2.671368 -1.806155 8.817330
2.666624 -1.365592 9.167106
2.711924 -1.762624 7.387700
2.701608 -1.408099 7.628712
2.669842 -0.792357 9.547676
2.624928 -0.308435 9.723569
2.694991 -0.921379 7.878965
2.691965 -0.522261 8.123150
2.280255 -3.355605 10.959684
2.104683 -2.727547 10.667582
2.693934 -3.363342 10.031162
2.605398 -2.841616 10.199874
1.972538 -2.060220 10.573734
2.551268 -2.230837 10.516192
2.325843 -1.674116 9.967970
1.912615 -3.197386 14.922624
-0.586577 -4.976499 67.565438
1.726406 -2.128897 10.579594
1.624274 -1.369623 10.862781
0.594480 -2.263839 8.021039
2.602341 -9.210455 66.505331
2.653676 -6.078590 102.591335
2.751619 -2.157474 49.556753
1.382970 -21.794161 94.440397
0.674405 -14.100017 74.573485
-2.288697 -9.570605 69.896055
-2.754775 -7.689929 71.199175
1.157893 -2.244598 7.894976
1.912436 -3.220314 14.916699
-0.590418 -5.104771 67.895856
1.727289 -2.146198 10.583189
0.592696 -2.268475 7.981403
2.605019 -9.323832 66.561215
2.889423 -3.808466 45.076550
2.752218 -2.235461 49.564358
1.384253 -21.959547 94.483187
-2.288725 -9.681045 69.887959
-2.763395 -7.822778 71.398849
1.155312 -2.252323 7.871141
1.903922 -3.230642 14.838295
-0.590184 -5.210745 67.880850
0.592723 -2.280848 7.978906
2.603124 -9.420598 66.490098
2.348785 -7.363528 71.634179
2.076580 -4.460309 25.972422
2.657981 -6.409786 102.737571
2.890586 -3.880394 45.089507
2.749225 -2.311170 49.501971
0.675687 -14.357785 74.660793
-2.264482 -9.702412 69.201948
-2.768033 -7.946554 71.502856
2.875346 -2.255636 6.210200
2.898672 -1.967774 6.507106
2.277195 -1.089562 10.233016
2.832313 -0.560153 13.695493
2.848547 -1.546580 6.625940
2.736729 -1.190530 6.548635
2.864157 -1.546077 5.736443
2.860804 -1.283003 5.904307
2.723540 -0.762667 6.712086
2.726491 -0.430245 6.901971
2.884533 -0.562501 6.287664
2.739449 -2.765576 8.274170
2.495794 -2.223694 7.811608
2.826477 -2.626502 7.103447
2.732317 -2.250565 7.135899
2.673585 -1.875429 8.815844
2.665701 -1.436205 9.157576
2.713282 -1.820186 7.382707
2.704750 -1.467943 7.632219
2.683176 -0.867606 9.598820
2.568573 -0.391064 9.495076
2.693868 -0.982034 7.873003
2.689705 -0.585117 8.116471
2.252621 -3.401267 10.787844
2.690928 -3.437254 9.996663
2.651298 -2.964903 10.380592
1.986926 -2.155013 10.650501
2.547191 -2.309207 10.484383
2.339712 -1.758574 10.026049
1.157994 -2.293369 7.884981
1.898189 -3.290800 14.775227
-0.589121 -5.525698 67.798893
-1.004700 -3.280373 68.549072
1.855731 -2.046741 12.011296
0.592321 -2.315697 7.961496
2.608887 -9.753313 66.594675
2.344810 -7.685929 71.454639
2.072074 -4.572034 25.889226
2.660680 -6.898848 102.801208
0.674544 -14.655175 74.310508
-2.257606 -10.003640 68.980411
-0.412205 -12.737172 106.685090
1.159445 -2.308116 7.894089
1.892153 -3.304317 14.718309
-0.592271 -5.652707 68.070426
-1.002840 -3.384048 68.447005
1.664533 -2.507224 13.547271
1.958470 -2.472707 12.162179
1.862025 -2.070718 12.054406
0.592635 -2.329315 7.964782
2.609927 -9.861047 66.604100
2.346170 -7.801975 71.483335
2.070010 -4.607946 25.853516
2.663888 -7.068046 102.917035
-2.248975 -10.079394 68.730068
-0.412181 -12.909407 106.707751
1.886343 -3.318017 14.663340
-1.001369 -3.488313 68.366760
1.910403 -2.850181 15.812518
1.862329 -2.089711 12.054181
1.697320 -1.658668 15.702682
0.591995 -2.338660 7.948532
0.831067 -2.192856 7.989774
2.609252 -9.962158 66.565849
2.347949 -7.919540 71.525765
2.076642 -4.662569 25.937983
2.664906 -7.231728 102.940799
1.041859 -1.342990 16.293171
-2.250419 -10.193576 68.760760
-2.728359 -8.404944 70.511999
2.869386 -2.308735 6.180790
2.895068 -2.025738 6.485565
2.283871 -1.186481 10.261976
2.173745 -0.687162 10.191335
2.849374 -1.607895 6.619283
2.786632 -1.262455 6.673816
2.861767 -1.597789 5.722607
2.864126 -1.338077 5.905590
2.724985 -0.824667 6.714722
2.727205 -0.493886 6.905863
2.894460 -0.941908 6.153632
2.884573 -0.620390 6.288455
2.745234 -2.847172 8.272625
2.506803 -2.303865 7.834339
2.836573 -2.700093 7.111872
2.741491 -2.322449 7.146542
2.686338 -1.964137 8.849923
2.666828 -1.521478 9.153858
2.712774 -1.888023 7.369726
2.704851 -1.538476 7.624418
2.686204 -0.957103 9.608216
2.584740 -0.477751 9.563389
2.693349 -1.054754 7.867864
2.693221 -0.660218 8.128460
2.287388 -3.552006 10.947884
1.629640 -2.325765 7.890045
2.689786 -3.528328 9.964594
2.651504 -3.061278 10.358559
1.979486 -2.246741 10.589260
2.080127 -1.833044 11.964535
2.521185 -2.385990 10.349085
2.343488 -1.853756 10.032909
1.877006 -3.371113 14.568681
-0.643836 -6.434055 72.453329
-1.000316 -3.807992 68.310810
1.895154 -2.903234 15.660437
1.980768 -2.572665 12.303141
1.866769 -2.149718 12.078852
0.591881 -2.374600 7.936717
0.833610 -2.236060 8.013839
2.615532 -10.298384 66.681558
2.078555 -4.787914 25.942542
2.670488 -7.730710 103.120197
-2.243037 -10.489320 68.523264
-2.584938 -8.344377 67.050164
1.889756 -3.714547 13.843690
1.872772 -3.386833 14.527338
-0.642831 -6.541855 72.372456
-0.979709 -3.860425 67.151302
1.887729 -2.917448 15.588086
1.982794 -2.594026 12.313841
1.664450 -1.986328 10.615696
0.590860 -2.382050 7.912623
0.827613 -2.233253 7.935133
2.086758 -4.846774 26.048295
1.413056 -4.180786 50.482721
2.065175 -4.363706 103.799846
-2.245753 -10.608655 68.588872
-2.608387 -8.515277 67.603762
-0.196511 -9.229150 69.801182
1.868313 -3.402059 14.484029
-0.642507 -6.654237 72.349219
1.880944 -2.932323 15.521629
1.774216 -2.378996 10.876723
1.678095 -2.015244 10.711927
0.591365 -2.396535 7.919688
0.546992 -2.315535 8.017728
0.839535 -2.275853 8.083213
2.083699 -4.880389 25.998419
1.410063 -4.250576 50.347541
-2.241944 -10.701398 68.472357
-2.613437 -8.636067 67.716412
2.875603 -2.360266 6.182019
2.896667 -2.076375 6.478418
2.288994 -1.267635 10.283142
2.166055 -0.765851 10.149692
2.839993 -1.654981 6.587878
2.784570 -1.313258 6.663453
2.860196 -1.640994 5.711638
2.860144 -1.382272 5.891164
2.720867 -0.875930 6.702135
2.727244 -0.547079 6.907112
2.868297 -0.985566 6.090923
2.886169 -0.668712 6.292414
2.749316 -2.914680 8.268279
2.691078 -2.504381 8.458645
2.847312 -2.763698 7.124648
2.740973 -2.377028 7.131580
2.669104 -2.022392 8.776702
2.665913 -1.591912 9.143117
2.712254 -1.944477 7.358142
2.704943 -1.597283 7.617439
2.688246 -1.031839 9.613491
2.578632 -0.552187 9.539427
2.697578 -1.116326 7.878020
2.693275 -0.723011 8.128365
2.308742 -3.668702 11.038743
2.168131 -3.071659 10.974703
2.691818 -3.607727 9.949362
2.656524 -3.146562 10.360395
2.004971 -2.354294 10.732549
2.543290 -2.484250 10.435404
2.377598 -1.952159 10.186605
1.902278 -3.824004 13.924932
1.860779 -3.456707 14.404706
-0.649683 -7.051304 72.963712
-0.992581 -4.321946 67.880799
1.872951 -2.993233 15.436151
1.765208 -2.419075 10.806108
1.686070 -2.072526 10.762475
0.554418 -2.389310 8.181911
0.832348 -2.294369 7.983805
2.081199 -4.995874 25.940949
-2.619611 -8.974033 67.836840
1.858574 -3.475327 14.380836
-0.634579 -7.052062 71.686806
-0.992839 -4.429655 67.896970
1.864458 -3.005018 15.353919
2.014800 -2.726780 12.517032
1.676022 -2.079614 10.687610
0.547597 -2.367613 8.019018
0.832685 -2.307555 7.985174
1.360352 -3.336367 15.992187
2.679038 -8.725273 103.356135
2.751282 -3.397469 49.472082
-2.626063 -9.100157 67.982387
1.853246 -3.510667 14.325190
-0.633149 -7.267572 71.566851
-0.996111 -4.653964 68.080473
1.861331 -3.048060 15.317060
2.034477 -2.788891 12.645118
1.680428 -2.116972 10.714551
0.547145 -2.389785 8.001942
2.681959 -9.058246 103.437936
2.750810 -3.551692 49.451312
-2.701740 -9.544710 69.773339
-0.196339 -10.017432 69.871444
2.874964 -2.407182 6.166860
2.888580 -2.121593 6.447354
2.294509 -1.349292 10.305618
2.159477 -0.843981 10.113337
2.847370 -1.708715 6.598390
2.825220 -1.375623 6.764232
2.856971 -1.683401 5.696762
2.861840 -1.427932 5.889096
2.723008 -0.927765 6.706014
2.726607 -0.600304 6.906067
2.856436 -1.030482 6.060870
2.886212 -0.717073 6.292312
2.754523 -2.983326 8.267066
2.700456 -2.576986 8.475961
2.860705 -2.829899 7.144056
2.741748 -2.432398 7.119870
2.667649 -2.089268 8.760185
2.667034 -1.663068 9.139522
2.716133 -2.003315 7.359177
2.705650 -1.656279 7.611892
2.683906 -1.105413 9.593009
2.554516 -0.626710 9.441051
2.697058 -1.177003 7.872449
2.689870 -0.785658 8.116292
2.265606 -3.687213 10.782256
2.151252 -3.134280 10.857568
2.693853 -3.687062 9.933494
2.645715 -3.214977 10.293387
1.889383 -1.876517 10.689357
2.512201 -2.538287 10.278760
2.374894 -2.029265 10.162716
1.133729 -2.292911 8.097765
-0.633076 -7.494219 71.567723
1.849894 -3.078571 15.203576
0.546032 -2.408549 7.969239
1.214024 -3.597798 11.774929
0.825370 -2.336833 7.881208
1.911567 -4.216007 25.862299
2.687281 -9.400087 103.614330
2.082888 -5.874022 104.642138
2.749365 -3.704739 49.410165
1.118206 -2.277970 7.960895
-0.635443 -7.627498 71.771904
-0.994109 -4.968685 67.971222
1.844816 -3.094535 15.152705
1.882360 -2.371475 12.161564
0.546061 -2.420902 7.966525
1.212903 -3.612644 11.756831
0.824935 -2.347782 7.872759
1.916213 -4.266079 25.925906
2.688943 -9.567842 103.660272
2.749362 -3.782054 49.403367
-2.733900 -9.976444 70.513356
1.118703 -2.303311 7.959707
-0.635036 -7.851321 71.737767
-0.995104 -5.186290 68.025237
1.839768 -3.133754 15.097955
2.326042 -3.248700 14.624886
1.879964 -2.406650 12.138519
0.545692 -2.443258 7.951253
0.824209 -2.369906 7.857724
2.107175 -5.383555 26.233997
1.912540 -4.338878 25.857192
2.691738 -9.902075 103.733379
2.751979 -3.939914 49.441187
-2.730361 -10.187097 70.406558
2.881949 -2.459383 6.169034
2.902110 -2.178864 6.468348
2.323253 -1.440579 10.444817
2.166204 -0.923247 10.147126
2.854752 -1.762693 6.608465
2.809640 -1.423086 6.717715
2.859542 -1.728138 5.694077
2.865973 -1.474374 5.892108
2.718201 -0.978702 6.690767
2.725973 -0.653525 6.904614
2.864441 -1.078415 6.076246
2.886258 -0.765453 6.291841
2.752448 -3.044951 8.241376
2.698975 -2.641143 8.455194
2.872777 -2.895389 7.159273
2.745752 -2.490092 7.116893
2.668302 -2.157339 8.750760
2.666127 -1.733345 9.127692
2.718131 -2.061156 7.354157
2.713694 -1.718403 7.628526
2.680552 -1.178933 9.575839
2.572590 -0.699947 9.515029
2.694760 -1.237192 7.860702
2.693970 -0.848646 8.128629
2.336673 -3.883380 11.137673
2.139060 -3.201614 10.766993
2.697266 -3.768139 9.922555
2.648985 -3.298138 10.286395
1.891306 -1.960877 10.691428
2.527138 -2.631159 10.330996
2.436133 -2.149786 10.444613
-0.633510 -8.066074 71.615458
-0.994210 -5.397388 67.976865
1.808052 -3.130950 14.798134
1.889843 -2.454830 12.203631
1.602071 -2.003961 14.667816
2.872827 -14.112832 54.179755
0.546754 -2.473287 7.969077
2.111481 -5.476185 26.275996
1.911774 -4.417765 25.831771
1.920709 -7.244722 71.515036
1.453464 -4.672963 69.459896
2.750445 -4.092563 49.396852
0.227164 -14.285006 74.472797
-0.637276 -8.213720 71.937898
-0.993891 -5.503323 67.959411
1.793366 -3.130698 14.659061
1.889878 -2.473823 12.200839
1.596604 -2.021303 14.608256
2.872745 -14.196291 54.152780
0.544192 -2.471691 7.905908
2.883098 -8.839153 31.048837
1.915246 -4.465717 25.877214
1.921065 -7.357646 71.512608
1.453529 -4.781679 69.449556
2.749624 -4.168712 49.373507
0.227463 -14.451047 74.716820
-0.630530 -8.379561 71.365135
1.789384 -3.169718 14.614058
1.885849 -2.507196 12.165741
1.597037 -2.067105 14.607914
2.869285 -14.346140 54.032589
0.544242 -2.496060 7.900224
1.920466 -4.558080 25.942142
1.920705 -7.579289 71.465385
2.750399 -4.324200 49.374234
0.227837 -14.663403 74.557213
2.872168 -2.499519 6.131943
2.891045 -2.221913 6.429352
2.358969 -1.537109 10.618385
2.183278 -1.004766 10.235290
2.848291 -1.810471 6.583281
2.815416 -1.476556 6.726527
2.857976 -1.771027 5.682114
2.861996 -1.518242 5.876654
2.720347 -1.030528 6.693843
2.728732 -0.706722 6.912147
2.861324 -1.124454 6.065625
2.887862 -0.813880 6.294672
2.757100 -3.113072 8.237236
2.702385 -2.709181 8.450759
2.888164 -2.964206 7.182842
2.751049 -2.548803 7.117094
2.672639 -2.227794 8.754075
2.669290 -1.805391 9.130665
2.715106 -2.115892 7.333798
2.707683 -1.774469 7.601305
2.686044 -1.254478 9.592917
2.611051 -0.775090 9.671970
2.698404 -1.298847 7.867512
2.695187 -0.911539 8.130895
2.175063 -3.335466 10.951746
2.692447 -3.838202 9.877670
2.660614 -3.390880 10.314536
2.181283 -2.805605 11.767404
1.888448 -2.041263 10.661442
2.551791 -2.733970 10.426439
2.428582 -2.225193 10.395961
-1.046906 -12.562228 106.691206
1.795240 -3.224730 14.659038
1.716497 -2.605474 10.425891
2.871419 -14.524466 54.024219
0.543381 -2.515460 7.873121
1.222124 -3.804575 11.816146
0.784770 -2.152266 8.019603
1.920484 -4.638919 25.927879
1.923810 -7.815069 71.558761
2.747219 -4.473890 49.296843
1.791473 -3.263873 14.615739
1.908048 -2.607866 12.312541
0.542846 -2.536447 7.853702
1.223872 -3.846511 11.825467
0.787668 -2.184699 8.054069
1.924793 -4.729760 25.978388
2.710001 -11.436307 104.270811
2.098188 -7.893298 105.255830
2.749233 -4.631128 49.320498
1.793014 -3.289171 14.625364
1.537928 -2.542501 13.088496
1.917620 -2.637983 12.377986
1.593506 -1.896040 10.574468
0.542290 -2.545319 7.837197
1.223587 -3.863848 11.816650
1.144294 -5.305871 25.785763
1.034839 -4.587345 27.481831
0.791690 -2.208064 8.106496
1.926568 -4.774449 25.997631
2.711254 -11.604330 104.295550
2.096542 -8.051202 105.140651
2.747286 -4.705167 49.274426
2.877632 -2.550533 6.129796
2.897126 -2.274954 6.431448
2.362177 -1.620921 10.626972
2.191490 -1.085824 10.275652
2.846203 -1.860027 6.568727
2.825466 -1.531641 6.746031
2.857240 -1.814175 5.671605
2.861265 -1.563030 5.868097
2.718324 -1.081651 6.685288
2.725389 -0.759853 6.902335
2.887607 -1.176514 6.122281
2.886355 -0.862145 6.289759
2.753907 -3.173161 8.206905
2.704168 -2.775855 8.440174
2.887659 -3.018876 7.162908
2.759574 -2.610155 7.125928
2.674875 -2.296921 8.749241
2.666352 -1.874489 9.110056
2.713967 -2.171594 7.318597
2.709620 -1.833956 7.598136
2.682204 -1.327613 9.572658
2.667056 -0.853926 9.900184
2.700269 -1.360105 7.868129
2.692944 -0.974064 8.121188
2.357930 -4.090657 11.196836
2.163546 -3.403367 10.863685
2.694950 -3.917762 9.861792
2.667410 -3.478526 10.321156
2.035701 -2.722566 10.858878
1.873932 -2.110770 10.554444
2.393109 -2.278751 10.213291
-0.617044 -9.037433 70.231774
1.822790 -3.385584 14.888817
1.465411 -2.479120 12.373886
1.937584 -2.699804 12.514548
1.619881 -1.953663 10.769364
2.876655 -9.251117 30.844056
1.153125 -5.430687 26.008907
0.791744 -2.233193 8.101683
1.928422 -4.859900 26.010274
2.716536 -11.953203 104.459507
2.103292 -8.406920 105.467996
2.746168 -4.857408 49.235686
-0.614719 -9.236348 70.032474
1.790409 -3.375352 14.583295
1.805254 -3.015399 15.683810
1.615756 -1.982989 10.733822
2.873712 -9.337115 30.780534
0.790933 -2.255767 8.085024
1.929727 -4.944032 26.014720
2.718281 -12.287059 104.479193
2.748395 -5.015084 49.262093
-0.614538 -9.346213 70.018961
1.785758 -3.389837 14.536091
1.951582 -2.774836 12.604540
1.604839 -1.988993 10.649179
2.707386 -8.837537 28.852675
1.439372 -4.431842 15.515809
0.498864 -2.134770 8.052736
0.790247 -2.266279 8.072785
1.935037 -4.997822 26.086748
2.720593 -12.460689 104.546268
2.749329 -5.093717 49.271148
2.875475 -2.595781 6.109659
2.897244 -2.324324 6.418732
2.292995 -1.667548 10.269862
2.200442 -1.167690 10.319284
2.936662 -1.955798 6.785732
2.825551 -1.583507 6.739146
2.857332 -1.857592 5.662532
2.862158 -1.608291 5.862796
2.723947 -1.134204 6.696898
2.726116 -0.813011 6.903388
2.890850 -1.224212 6.125509
2.887961 -0.910579 6.291828
2.758564 -3.241205 8.201685
2.704865 -2.841483 8.425326
2.897752 -3.083335 7.171039
2.769392 -2.672768 7.137865
2.674482 -2.364125 8.734391
2.669519 -1.946543 9.111897
2.715971 -2.229187 7.312226
2.708502 -1.891901 7.585091
2.683279 -1.402012 9.571153
2.686563 -0.932585 9.978164
2.701540 -1.421185 7.866356
2.695319 -1.037092 8.126293
2.304566 -4.085565 10.884926
2.159727 -3.481542 10.819088
2.693336 -3.991476 9.828713
2.669368 -3.560554 10.306376
2.010515 -2.775200 10.687717
1.887523 -2.205371 10.630961
2.544101 -2.887345 10.356660
2.434534 -2.390703 10.397492
-1.057666 -7.451712 71.531789
1.777766 -3.443027 14.449006
1.344588 -2.249375 7.855222
1.968849 -2.854780 12.717519
2.806196 -16.048193 60.166573
2.696878 -8.936481 28.689517
0.504738 -2.203107 8.204674
0.787892 -2.296619 8.032035
2.727177 -12.981631 104.735792
-0.601829 -9.651107 68.939963
-1.060326 -7.579286 71.680316
1.779308 -3.468257 14.458314
1.355990 -2.277968 7.930225
1.968071 -2.873557 12.708244
2.693331 -8.969033 28.634443
2.638835 -8.289779 30.486930
0.501038 -2.195731 8.100315
0.787634 -2.308235 8.025598
2.729879 -13.158100 104.817596
-1.060759 -7.695060 71.703238
1.777006 -3.486499 14.432481
1.354880 -2.288596 7.919976
1.968656 -2.894028 12.708698
2.678119 -8.961999 28.445513
2.627504 -8.301356 30.331883
0.500706 -2.206342 8.088137
0.787091 -2.318996 8.015244
2.734113 -13.342559 104.962620
2.877132 -2.643831 6.097948
2.893638 -2.371193 6.396685
2.264462 -1.731233 10.117488
2.204967 -1.248993 10.338714
2.847134 -1.961283 6.551247
2.868356 -1.651394 6.842850
2.857427 -1.900963 5.653132
2.863864 -1.653855 5.858952
2.724014 -1.185728 6.693148
2.726169 -0.866167 6.902156
2.887739 -1.270457 6.113770
2.981384 -0.968698 6.510724
2.758180 -3.303876 8.179517
2.707741 -2.909039 8.417404
2.900564 -3.141069 7.159066
2.782442 -2.738382 7.158340
2.419472 -2.238933 7.805128
2.667605 -2.015875 9.094040
2.717978 -2.286799 7.305406
2.713500 -1.952943 7.590379
2.680428 -1.475071 9.553626
2.692330 -1.010657 9.999201
2.698657 -1.480843 7.850825
2.694813 -1.099750 8.121350
2.311147 -4.181059 10.891505
2.233252 -3.678374 11.213556
2.699965 -4.076679 9.828093
2.677933 -3.650758 10.319036
1.549553 -2.262327 7.860164
2.594114 -3.019208 10.563851
2.399873 -2.442270 10.217835
-0.611436 -10.203283 69.753990
-1.060146 -8.031316 71.659445
1.776709 -3.553025 14.415199
2.228205 -3.289096 14.554222
2.679784 -9.099859 28.421436
2.614518 -8.400770 30.129560
0.499918 -2.239030 8.057358
0.787594 -2.357403 8.013280
1.947784 -5.356370 26.213135
2.741035 -13.868925 105.159660
-0.611831 -10.319598 69.788479
-1.061175 -8.150796 71.715448
1.057716 -2.221023 7.855667
1.706239 -3.098541 14.677557
2.222256 -3.303948 14.507237
2.806783 -16.608776 60.001696
2.683738 -9.157548 28.452075
2.606744 -8.422396 30.018965
0.498654 -2.244286 8.019673
1.000009 -4.992288 26.205955
0.786909 -2.367664 8.000913
1.950483 -5.404476 26.245047
-1.059838 -8.256360 71.638017
1.060520 -2.238463 7.878560
1.708503 -3.125044 14.695339
2.216578 -3.319018 14.462191
1.511909 -2.404266 13.665000
2.803249 -16.679576 59.889749
2.702529 -9.266823 28.652351
2.594327 -8.428592 29.850493
0.498394 -2.255098 8.009393
0.786366 -2.378325 7.990479
1.952266 -5.450184 26.263128
2.740913 -14.195336 105.089963
0.706166 -20.470430 76.432913
2.873477 -2.696770 6.070444
2.899000 -2.433530 6.392970
2.306019 -1.850162 10.315599
2.210985 -1.347091 10.364282
2.850170 -2.023172 6.546161
2.847814 -1.706196 6.779826
2.855883 -1.951946 5.637836
2.863152 -1.707320 5.847717
2.727568 -1.248285 6.697424
2.725551 -0.929765 6.898218
2.884639 -1.325814 6.100643
2.888077 -1.016801 6.286942
2.762314 -3.383847 8.167131
2.707929 -2.986897 8.396023
2.904069 -3.210320 7.144402
2.789711 -2.810434 7.158546
2.415934 -2.308160 7.776902
2.667746 -2.100153 9.081049
2.717495 -2.353755 7.288094
2.712405 -2.022371 7.574300
2.659901 -1.555681 9.464683
2.692419 -1.103510 9.995644
2.699948 -1.553878 7.846725
2.694895 -1.174899 8.117037
2.405947 -4.452817 11.357279
2.209058 -3.743617 11.046237
2.699771 -4.167110 9.793817
2.675095 -3.742555 10.277508
2.054309 -3.015781 10.914080
1.930899 -2.432276 10.884119
2.578270 -3.099990 10.469097
2.437693 -2.570186 10.379903
-1.058857 -8.590023 71.571715
1.068924 -2.291102 7.946984
1.708017 -3.192597 14.677775
2.200350 -3.364385 14.332785
1.765621 -2.826242 16.292428
2.870587 -9.991883 30.527539
2.586137 -8.540319 29.707658
0.498969 -2.295099 8.015576
0.785585 -2.412665 7.970725
1.502273 -7.748650 71.752496
-0.221524 -14.638036 74.737489
1.069592 -2.304667 7.950292
1.706247 -3.212401 14.656183
2.188131 -3.370016 14.240983
1.756553 -2.838638 16.194376
2.872052 -10.044368 30.528114
2.578361 -8.560510 29.597048
0.498208 -2.302934 7.991545
0.786471 -2.427697 7.979675
0.742773 -2.186678 8.103450
1.498527 -7.839462 71.524440
-0.221173 -14.751572 74.695832
1.780455 -3.716732 14.413899
1.704073 -3.231453 14.630645
2.187087 -3.390708 14.228971
1.772544 -2.886946 16.356626
2.875853 -10.105183 30.555237
2.567955 -8.571558 29.453716
0.498163 -2.314901 7.987048
1.375600 -4.295778 15.993904
0.744501 -2.204098 8.126575
1.498803 -7.952259 71.519087
2.881238 -2.749572 6.071850
2.898382 -2.482106 6.377250
2.318146 -1.937821 10.366464
2.217737 -1.430004 10.394048
2.851736 -2.074304 6.539076
2.856452 -1.761944 6.793728
2.860948 -1.997770 5.638303
2.865674 -1.753166 5.844891
2.735983 -1.302093 6.715176
2.732394 -0.983701 6.914875
2.878354 -1.370832 6.080846
2.880355 -1.063973 6.265747
2.763057 -3.447492 8.147485
2.708094 -3.051715 8.377678
2.912187 -3.273317 7.145515
2.800187 -2.874574 7.170532
2.676506 -2.580904 8.695041
2.727912 -2.207902 9.294778
2.716995 -2.409429 7.272915
2.710074 -2.079354 7.556071
2.657548 -1.627910 9.447909
2.672119 -1.176773 9.908600
2.702419 -1.615394 7.847231
2.700166 -1.238771 8.130128
2.421015 -4.568217 11.405357
2.148999 -3.730501 10.680967
2.700001 -4.242873 9.766158
2.688510 -3.839517 10.309057
2.072243 -3.125202 11.003204
2.607603 -3.213554 10.580723
2.450401 -2.662099 10.424392
1.783796 -3.790417 14.428558
1.700766 -3.293700 14.585179
2.167971 -3.741965 13.391319
2.208475 -3.486967 14.367669
1.788801 -2.987457 16.513558
1.556397 -1.978996 10.776515
2.875057 -10.244176 30.497182
2.556825 -8.670562 29.273904
0.497521 -2.347604 7.959747
2.512267 -8.022897 31.424138
0.742741 -2.236386 8.091893
1.780537 -4.750177 26.164228
-1.046574 -9.186909 70.858726
1.775727 -3.796452 14.349917
1.701418 -3.317505 14.586944
2.171718 -3.768748 13.411551
2.203888 -3.502785 14.330220
1.792834 -3.019241 16.551303
1.551947 -1.991377 10.739026
2.805795 -17.526072 59.669140
2.872689 -10.282812 30.453649
2.547036 -8.682403 29.138313
0.497118 -2.357346 7.945427
2.504954 -8.048046 31.311664
0.741590 -2.245453 8.071833
1.776806 -4.781011 26.094732
1.804448 -3.899861 14.599937
1.812198 -3.226144 10.968636
2.206150 -3.550438 14.336808
1.799175 -3.080408 16.608850
2.808406 -17.727260 59.665853
2.873930 -10.381604 30.434699
2.543992 -8.762141 29.072687
0.496448 -2.377449 7.920612
2.495010 -8.112645 31.150669
0.741112 -2.268768 8.059041
1.778122 -4.865704 26.101414
2.872991 -2.789101 6.036356
2.891799 -2.526297 6.346926
2.350411 -2.040065 10.517683
2.216732 -1.510109 10.381998
2.851847 -2.124550 6.527958
2.857973 -1.814827 6.788742
2.857738 -2.039122 5.620763
2.863331 -1.796914 5.830935
2.733972 -1.353138 6.704527
2.729062 -1.036455 6.902919
2.874455 -1.416294 6.066171
2.888197 -1.113377 6.280954
2.763243 -3.510334 8.125532
2.710436 -3.118571 8.366208
2.901095 -3.316681 7.095052
2.808084 -2.936707 7.174736
2.682967 -2.653413 8.702410
2.668004 -2.240512 9.057699
2.723409 -2.470188 7.277526
2.713859 -2.139800 7.556094
2.658146 -1.701250 9.442136
2.666992 -1.252287 9.883093
2.701921 -1.675680 7.837786
2.697938 -1.300960 8.117888
2.820271 -5.409619 13.469843
2.213181 -3.920888 11.017616
2.700691 -4.319109 9.739723
2.696209 -3.929431 10.315549
2.059432 -3.191749 10.904941
2.617931 -3.307171 10.605981
2.463923 -2.755589 10.471909
1.712889 -3.428963 14.679600
1.839023 -3.304255 11.141423
1.301720 -2.272530 7.888099
1.798889 -3.131630 16.597322
1.542843 -2.048556 10.657786
2.869363 -10.458916 30.349137
2.528901 -8.799363 28.857224
0.457677 -2.209324 8.261811
2.478239 -8.153686 30.896605
0.739988 -2.290160 8.036446
1.779704 -4.951275 26.111799
1.707488 -3.441788 14.622505
1.824269 -3.297071 11.037320
1.300656 -2.283140 7.877844
2.869165 -10.505157 30.329963
2.527161 -8.837958 28.821433
0.453994 -2.199037 8.137644
2.470353 -8.175305 30.776372
0.738052 -2.296592 8.004601
1.816658 -3.318358 10.977162
1.317333 -2.332276 7.991036
1.698559 -3.046034 15.545083
2.869409 -10.599891 30.298935
2.517925 -8.894316 28.678765
2.662798 -16.134028 66.620048
0.453381 -2.219967 8.111235
2.465838 -8.255510 30.688793
0.739670 -2.326156 8.022921
2.882282 -2.843201 6.040404
2.894912 -2.577193 6.339366
2.366033 -2.132754 10.584407
2.183206 -1.574855 10.197030
2.850501 -2.173828 6.512831
2.864481 -1.869996 6.796218
2.854530 -2.080281 5.602917
2.860179 -1.840142 5.814859
2.739610 -1.406464 6.713974
2.728447 -1.089485 6.898070
2.877710 -1.463865 6.067511
2.873475 -1.158926 6.242495
2.762870 -3.572334 8.101290
2.711150 -3.183706 8.348677
2.907230 -3.377522 7.089947
2.826313 -3.008533 7.207162
2.681539 -2.719265 8.681060
2.667119 -2.309850 9.041398
2.718515 -2.522312 7.248605
2.716424 -2.199567 7.551898
2.658748 -1.774557 9.435789
2.687946 -1.334451 9.963642
2.703209 -1.736690 7.833546
2.700330 -1.364286 8.120434
2.467403 -4.833240 11.583114
2.786173 -4.995152 14.215290
2.708709 -4.406583 9.741666
2.683226 -3.991031 10.234141
2.026647 -3.227114 10.685525
2.482434 -3.355368 14.420325
2.625307 -3.397839 10.617186
1.904934 -2.283499 7.807698
-1.018014 -9.981436 69.209437
1.793045 -4.033525 14.457330
1.938741 -3.973309 16.840207
2.172991 -3.957609 13.372376
1.876276 -2.803702 12.609328
2.778923 -10.350876 29.239391
2.500818 -8.921560 28.438430
2.663206 -16.342456 66.569246
0.452597 -2.239726 8.078931
2.447777 -8.288885 30.417330
0.737106 -2.342744 7.978700
1.234131 -27.000809 78.546917
1.801045 -4.095698 14.518241
2.183038 -4.016237 13.429143
2.125583 -3.626237 13.719782
1.886250 -2.855989 12.676779
2.772487 -10.416670 29.133327
2.494059 -8.985000 28.326319
2.662908 -16.546362 66.500265
0.451864 -2.259553 8.048501
2.441691 -8.362110 30.308243
0.736761 -2.366074 7.967580
-1.028117 -10.390031 69.760995
1.798533 -4.112691 14.489686
1.017129 -2.252870 7.917011
2.182804 -4.036657 13.421985
2.120723 -3.639993 13.680312
1.703898 -3.175790 15.579109
2.154615 -3.235554 14.681816
2.765946 -10.436607 29.042523
2.486124 -8.999840 28.213840
2.661714 -16.641250 66.436415
0.451771 -2.271241 8.042110
2.434374 -8.383608 30.195710
0.736788 -2.378421 7.964941
2.872512 -2.880845 6.000846
2.892808 -2.624174 6.319001
2.313116 -2.174464 10.306943
2.183684 -1.654065 10.191691
2.852802 -2.225221 6.506359
2.869567 -1.924660 6.799566
2.857118 -2.124615 5.597056
2.860273 -1.884701 5.805610
2.747337 -1.460675 6.728572
2.729869 -1.142834 6.898439
2.873019 -1.508803 6.050318
2.876653 -1.207489 6.245928
2.766986 -3.639577 8.090927
2.713498 -3.250440 8.336143
2.908730 -3.433467 7.072079
2.840673 -3.077354 7.228136
2.684324 -2.788689 8.674171
2.668273 -2.380474 9.032161
2.718651 -2.578118 7.233955
2.711043 -2.254196 7.523011
2.650014 -1.843044 9.392344
2.686619 -1.411194 9.952425
2.706281 -1.798548 7.834489
2.701570 -1.427332 8.118667
2.487082 -4.961247 11.651485
2.787138 -5.106790 14.184761
2.706202 -4.477543 9.701305
2.685650 -4.073362 10.217105
2.062035 -3.364087 10.877632
1.883069 -2.707806 10.509511
2.631420 -3.487293 10.621956
2.471143 -2.924790 10.470645
2.846370 -7.468585 21.069793
1.801205 -4.163546 14.502034
1.016174 -2.275391 7.902322
1.802424 -3.412108 10.849862
1.805796 -3.401229 16.623623
2.134366 -3.253552 14.521590
2.764710 -10.521615 28.994788
2.479390 -9.062307 28.101642
2.666297 -16.876650 66.496622
0.452244 -2.298968 8.050820
2.418310 -8.420551 29.951368
0.736190 -2.400951 7.949858
1.497592 -9.938119 71.057034
2.287437 -6.885949 34.406236
-1.608773 -24.714619 74.492491
1.236206 -27.625130 78.364257
0.729784 -23.972472 78.209582
0.239573 -20.451726 76.508247
2.843449 -7.526137 21.023843
1.015816 -2.298922 7.893372
1.805627 -3.451241 10.862278
1.718504 -3.298336 15.712292
2.127661 -3.289257 14.462738
2.763616 -10.606933 28.948653
2.476968 -9.140216 28.042723
2.663924 -17.066209 66.369747
0.451452 -2.318099 8.018289
2.412652 -8.493176 29.847830
1.498114 -10.162432 71.039485
1.236565 -27.862827 78.256548
0.730779 -24.236104 78.197281
2.843544 -7.558970 21.013078
1.022100 -2.323836 7.951203
1.822461 -3.498060 10.970827
1.716462 -3.319109 15.686597
2.119622 -3.300478 14.398219
2.869568 -11.067909 30.126280
2.473370 -9.170118 27.983640
2.666543 -17.186267 66.407927
0.451420 -2.330118 8.013769
2.408337 -8.523951 29.775780
1.236806 -27.982263 78.204327
2.881807 -2.934984 6.004057
2.892196 -2.672097 6.301818
2.397682 -2.321814 10.717328
2.192668 -1.737931 10.230697
2.849274 -2.272862 6.485055
2.865399 -1.974810 6.778621
2.855568 -2.166463 5.582081
2.861992 -1.929974 5.799587
2.754372 -1.514913 6.740870
2.731294 -1.196216 6.898393
2.874689 -1.555790 6.047296
2.879054 -1.255967 6.247144
2.768862 -3.704052 8.072846
2.715305 -3.316542 8.321239
2.914872 -3.494367 7.065965
2.855037 -3.146649 7.248468
2.686060 -2.857154 8.662989
2.671975 -2.452943 9.031854
2.721302 -2.635883 7.226177
2.717893 -2.316693 7.530916
2.655537 -1.918648 9.404091
2.682925 -1.487013 9.930932
2.705792 -1.858680 7.823625
2.705122 -1.491160 8.124028
2.489477 -5.055832 11.628566
2.790118 -5.221863 14.164605
2.707818 -4.554787 9.676624
2.685876 -4.152443 10.190184
2.064769 -3.452430 10.871543
1.487361 -2.267596 7.929631
2.645567 -3.587054 10.661724
2.518292 -3.055860 10.674375
2.843496 -7.623954 20.989512
-0.669283 -14.474759 74.613685
1.852264 -4.056371 15.947799
