# .PCD v.7 - Point Cloud Data file format
VERSION .7
FIELDS x y z
SIZE 4 4 4
TYPE F F F
COUNT 1 1 1
WIDTH 1618
HEIGHT 1
POINTS 1618
DATA ascii
-7.024597 2.782338 -2.294297
-8.818202 2.549785 -2.222317
-8.810298 2.079594 -2.111588
-7.360120 2.361279 -2.287257
-7.700547 2.031979 -2.293030
-8.963456 4.942101 -1.706140
-9.200311 4.497520 -1.619180
-8.680789 5.056770 -2.222397
-9.030028 4.640105 -2.160658
-9.184450 3.836465 -1.485027
-9.077559 3.275538 -1.352410
-9.067778 3.971870 -2.019246
-8.978408 3.455660 -1.874827
-8.948682 3.797150 -1.213017
-25.095426 7.423057 -2.400451
-26.960511 6.870589 -2.404905
-20.184497 5.638628 -2.510820
-8.738837 4.350976 -0.287156
-8.735563 4.207071 -0.227526
-22.645005 10.974060 -1.977790
-8.919499 3.634963 -0.171286
-33.898114 11.214488 -1.011721
-8.924863 3.796808 -0.516102
-28.265827 9.909614 -1.878039
-34.155282 10.462115 -2.075428
-46.474187 12.173568 -2.487323
-8.708588 4.056864 0.452947
-93.593854 44.186886 -1.447810
-8.965162 3.636718 0.510508
-8.627388 3.663508 0.170371
-8.703539 3.378164 0.224347
-8.915667 3.800875 -1.208574
-25.094037 7.465339 -2.401300
-26.934913 6.909417 -2.403250
-20.168655 5.668533 -2.509670
-8.854696 4.419881 -0.294024
-8.792102 4.247696 -0.230588
-22.651918 11.020773 -1.979920
-9.047928 3.697370 -0.176926
-33.801173 11.242442 -1.008642
-8.930789 3.815241 -0.516955
-8.969496 3.489496 -0.455705
-33.871554 10.436753 -2.057314
-46.428627 12.239886 -2.485484
-93.582954 44.361261 -1.448284
-8.641334 4.101052 0.114944
-8.873620 3.619840 0.507698
-9.026214 3.434611 0.566572
-8.944223 3.798557 0.168886
-9.161725 3.546813 0.225048
-25.064251 7.542160 -2.400201
-26.926134 6.997009 -2.404050
-20.156037 5.733061 -2.509943
-8.723278 4.250931 -0.227642
-22.645658 11.104822 -1.982258
-9.129678 3.759538 -0.180743
-33.763312 11.347552 -1.008096
-8.957435 3.857732 -0.519868
-9.080854 3.558816 -0.464525
-33.773112 10.523306 -2.052427
-46.344973 12.373980 -2.482230
-8.673036 4.090545 0.452598
-8.539553 4.090242 0.116054
-8.814769 3.630139 0.506187
-9.066132 3.479450 0.568604
-8.877588 3.805487 0.169262
-5.459229 3.294254 -2.451911
-5.799189 3.076333 -2.473923
-9.153246 2.905351 -1.790162
-9.350432 2.469752 -1.720729
-5.818571 2.624273 -2.347972
-5.994490 2.330727 -2.312379
-5.632475 2.376543 -2.563593
-6.549070 1.683120 -2.326414
-5.823351 1.659681 -2.436467
-7.319980 4.215305 -2.316535
-7.625047 3.876485 -2.274894
-6.050709 3.738371 -2.328272
-6.372712 3.495600 -2.321234
-7.999923 3.461005 -2.248326
-8.469584 3.128250 -2.257691
-6.677390 3.120045 -2.295488
-6.997134 2.835116 -2.290989
-8.769578 2.611737 -2.213545
-8.766802 2.143666 -2.103587
-7.350487 2.421233 -2.288847
-7.697326 2.095083 -2.295735
-8.992713 5.046331 -1.719177
-9.000913 4.495774 -1.587058
-8.623906 5.114372 -2.216563
-8.799309 4.618782 -2.110286
-8.816376 3.779480 -1.424598
-9.192683 3.390973 -1.374614
-9.009082 4.031361 -2.011659
-8.987944 3.538132 -1.881999
-9.670264 3.641159 -0.873829
-25.026575 7.616840 -2.398318
-26.899663 7.080515 -2.403176
-20.116362 5.790648 -2.506612
-22.657081 11.197664 -1.986341
-9.204906 3.476700 -0.123010
-9.009943 3.910654 -0.524896
-28.085012 10.095890 -1.869393
-80.681187 23.411933 -2.182084
-33.726038 10.625113 -2.051012
-46.249332 12.504836 -2.478328
-8.696588 4.132819 0.453665
-93.599376 45.089427 -1.451273
-33.949757 14.947735 -0.166943
-8.945421 3.863829 0.168994
-8.744635 3.469115 0.224699
-9.860408 3.737797 -0.896019
-9.320727 4.055544 -1.277594
-25.051748 7.709508 -2.402989
-26.863278 7.161341 -2.401352
-20.103355 5.855035 -2.506884
-22.621438 11.268122 -1.985893
-8.737883 3.679379 -0.164663
-9.201060 3.507663 -0.123104
-8.952595 3.921006 -0.521011
-28.065912 10.188182 -1.869890
-34.736103 10.441549 -0.820477
-33.797004 10.762732 -2.057511
-46.402439 12.700617 -2.488877
-74.637486 32.075390 2.271628
-93.518152 45.412090 -1.451199
-73.057468 31.880498 -0.602665
-8.655903 3.634606 0.501788
-9.113240 3.627220 0.225351
-8.812975 3.740115 -0.847270
-9.747643 3.717750 -0.883966
-9.217404 4.032171 -1.262033
-25.011677 7.740658 -2.399859
-26.848855 7.202748 -2.400821
-20.123586 5.894515 -2.510638
-8.804685 4.369227 -0.232962
-22.656495 11.328876 -1.990806
-22.637854 10.302249 -1.807424
-8.858016 3.900304 -0.513711
-28.041170 10.229166 -1.869028
-34.557163 10.448961 -0.815433
-33.582370 10.754984 -2.044013
-46.114851 12.702585 -2.473015
-74.571135 32.185756 2.271611
-71.563120 34.989927 -1.061558
-72.901503 31.949459 -0.601048
-8.551599 3.611411 0.498537
-8.517803 3.373372 0.548380
-8.640389 3.793787 0.170529
-9.021320 3.611562 0.225279
-5.449837 3.344721 -2.457894
-5.771733 3.119431 -2.470737
-9.179070 2.990526 -1.799399
-9.272993 2.530286 -1.708320
-5.813546 2.675305 -2.352951
-5.945831 2.367747 -2.298514
-5.412012 2.350624 -2.465952
-6.544808 1.736289 -2.328283
-5.813766 1.706088 -2.436293
-7.288572 4.272496 -2.315745
-7.604988 3.940159 -2.276866
-6.033015 3.791090 -2.331431
-6.348683 3.546267 -2.321041
-7.986895 3.528640 -2.251290
-8.448375 3.195401 -2.257438
-6.652796 3.171671 -2.294014
-6.981869 2.891949 -2.292018
-8.683032 2.663402 -2.194763
-8.578172 2.178532 -2.058822
-7.327522 2.477560 -2.286216
-7.665576 2.152128 -2.289642
-9.057495 5.170460 -1.739762
-9.038872 4.598886 -1.600139
-8.556453 5.165711 -2.207945
-9.075749 4.836785 -2.188740
-9.229548 4.020385 -1.502033
-8.984370 4.104201 -2.012249
-8.987508 3.617718 -1.887102
-8.969869 3.831593 -0.867139
-9.756205 3.755033 -0.885955
-9.250296 4.078892 -1.268944
-26.815960 7.284496 -2.399386
-8.951148 4.467878 -0.240816
-8.976853 3.817025 -0.175397
-8.904078 3.457163 -0.112732
-9.002921 3.990091 -0.526286
-27.946328 10.295111 -1.863959
-34.072865 10.425028 -0.801593
-33.605126 10.877999 -2.047330
-46.026014 12.834331 -2.469564
-73.250904 31.897061 2.238772
-71.777884 35.372553 -1.066467
-72.895689 32.219456 -0.601229
-9.003824 3.812317 0.514036
-8.722219 3.473709 0.556844
-45.904136 18.475920 -0.006214
-8.822596 3.574116 0.225110
-9.760866 3.790959 -0.887519
-26.790539 7.367910 -2.398687
-8.830949 4.447908 -0.235311
-28.013725 11.103965 -0.991797
-8.815057 3.458463 -0.109747
-27.987257 11.602567 -2.074172
-27.911531 10.381721 -1.863341
-33.993464 10.517999 -0.799757
-33.735979 11.035201 -2.057918
-45.946451 12.968073 -2.466653
-73.215946 32.155029 2.241436
-71.768360 35.647429 -1.067389
-72.863280 32.478274 -0.601102
-8.912854 3.810280 0.511464
-8.754230 3.515672 0.558579
-8.925958 3.970253 0.169283
-8.967353 3.656709 0.225446
-9.231080 3.296269 0.281832
-8.937386 4.004480 -1.221681
-26.748812 7.402190 -2.395534
-27.925224 13.068553 -1.194324
-9.666360 4.129753 -0.205489
-8.897399 3.502018 -0.112845
-28.049309 11.678623 -2.080496
-33.912481 10.552128 -0.797624
-33.658425 11.069117 -2.053630
-45.870887 13.025151 -2.463134
-73.067008 32.227183 2.239125
-71.720154 35.763860 -1.067089
-73.094677 32.717158 -0.603812
-8.797361 3.782436 0.507837
-8.827530 3.947416 0.169777
-9.007535 3.687047 0.225566
-5.422168 3.385492 -2.455421
-5.759086 3.169302 -2.474324
-9.136304 3.056753 -1.794372
-9.254532 2.603328 -1.707666
-5.797714 2.722290 -2.353512
-5.937776 2.417407 -2.301216
-5.400457 2.394998 -2.467427
-6.540125 1.789468 -2.330151
-5.825374 1.757137 -2.445564
-7.271931 4.337599 -2.320063
-7.586154 4.004538 -2.279390
-6.023072 3.848386 -2.337934
-6.325959 3.597579 -2.321500
-7.964351 3.592699 -2.251584
-8.536731 3.298681 -2.288223
-6.638297 3.227496 -2.296357
-6.964361 2.948055 -2.292428
-8.616815 2.719314 -2.181491
-8.775399 2.290030 -2.112258
-7.309633 2.535233 -2.285394
-7.659526 2.214681 -2.291759
-8.982028 5.221789 -1.731577
-8.945318 4.642235 -1.588227
-8.481960 5.212458 -2.197473
-8.869490 4.824715 -2.144638
-9.116955 4.059892 -1.486804
-9.261695 3.575220 -1.393146
-8.998721 4.193457 -2.022304
-9.047193 3.719228 -1.905839
-26.717736 7.529052 -2.395241
-8.974723 4.580981 -0.243600
-8.972704 3.913052 -0.176272
-8.993225 4.085270 -0.527921
-8.831701 3.678868 -0.450161
-33.854960 10.709307 -0.796731
-9.102738 3.353971 -0.404905
-34.502052 10.091955 -1.803303
-93.533542 47.060419 -1.457950
-8.949376 3.889096 0.513614
-9.062693 3.687028 0.571680
-8.712687 3.949624 0.170402
-9.097543 3.767842 0.225888
-26.706601 7.571196 -2.395086
-13.016606 4.182443 -1.559269
-8.902842 4.565288 -0.240254
-8.803426 3.863404 -0.169179
-8.921516 3.573440 -0.114205
-9.127829 4.156871 -0.539334
-8.839753 3.697682 -0.451084
-33.856019 10.767915 -0.797045
-29.103135 9.831112 -1.750861
-34.317670 10.098916 -1.793239
-93.537098 47.245988 -1.458764
-33.849306 15.666980 -0.166506
-8.548928 3.749876 0.500435
-9.010516 3.684710 0.569882
-8.859142 4.025160 0.169736
-8.772172 3.230095 0.278807
-26.693476 7.612809 -2.394743
-23.748159 11.910244 -1.153372
-8.901819 4.581947 -0.240475
-22.832764 10.817517 -1.837582
-8.805503 3.880319 -0.169446
-8.759921 3.533094 -0.108473
-8.944876 4.098717 -0.524796
-9.091392 3.805518 -0.470120
-8.869235 3.153050 -0.053996
-28.989665 9.844940 -1.744046
-34.137197 10.106405 -1.783401
-33.486027 15.346945 1.146534
-93.522435 47.422706 -1.459258
-93.781800 42.723200 -0.835314
-8.664784 3.810712 0.504544
-9.203069 3.769582 0.577716
-8.557208 3.918427 0.171188
-8.839047 3.706349 0.225620
-5.386135 3.421521 -2.449106
-5.757736 3.224705 -2.483179
-9.089317 3.121349 -1.788553
-9.275629 2.685733 -1.714971
-5.809093 2.780319 -2.365854
-5.955863 2.475930 -2.314720
-5.391981 2.440548 -2.470539
-6.228080 2.107258 -2.309703
-6.540537 1.843797 -2.334082
-5.868823 1.815771 -2.469002
-7.247998 4.398988 -2.322110
-7.561574 4.066366 -2.280261
-5.981608 3.887803 -2.331731
-6.292691 3.643636 -2.318045
-7.950232 3.660219 -2.254547
-8.404392 3.329192 -2.256932
-6.612893 3.278755 -2.294884
-6.942837 3.002737 -2.291598
-8.624966 2.794801 -2.188240
-8.783542 2.364485 -2.117801
-7.289472 2.592204 -2.283969
-7.636221 2.273313 -2.288599
-9.072255 5.362447 -1.757907
-9.002996 4.756131 -1.605412
-8.419082 5.265106 -2.190252
-8.780873 4.867978 -2.130507
-9.148705 4.156665 -1.497254
-9.212631 3.640252 -1.388868
-9.042763 4.296213 -2.039670
-8.957014 3.767332 -1.891108
-18.928171 9.682455 -2.395484
-8.973951 3.341512 0.280599
-8.967048 4.148658 -1.233239
-8.880142 3.796006 -1.145172
-26.669092 7.741515 -2.395200
-8.606991 4.495984 -0.226423
-22.627848 10.853969 -1.823202
-8.754741 3.578030 -0.108655
-8.896307 4.128174 -0.522069
-8.897783 3.782816 -0.456721
-33.863072 11.003651 -0.798398
-33.822646 10.190436 -1.767102
-93.513958 47.972096 -1.461390
-93.730756 43.233158 -0.835285
-8.771544 3.900410 0.508824
-9.031368 3.756772 0.571730
-8.808614 3.742777 0.225758
-18.911881 9.711483 -2.395126
-8.881942 3.327248 0.279987
-9.215106 4.268671 -1.273831
-8.876743 3.810820 -1.145400
-26.659544 7.784108 -2.395231
-8.564438 4.492744 -0.224544
-22.615113 10.891349 -1.823391
-8.529536 3.834613 -0.158281
-8.851540 3.628070 -0.112296
-8.837160 4.120033 -0.517641
-8.892547 3.796963 -0.456668
-33.800683 11.042644 -0.796836
-28.352333 9.835787 -1.704395
-33.793888 10.239863 -1.766120
-93.524684 48.162782 -1.462359
-8.767198 4.501823 0.113233
-8.942593 3.984508 0.514811
-8.954801 3.745147 0.568966
-94.051771 39.469763 -0.231281
-8.979662 3.822272 0.226082
-18.884864 9.735217 -2.393298
-9.090258 3.411171 0.281661
-9.156180 4.261169 -1.265296
-8.838109 3.812378 -1.140291
-26.657608 7.828805 -2.396012
-22.584221 10.920354 -1.821957
-28.313373 11.783694 -1.010983
-8.758065 3.610569 -0.109029
-9.076541 3.295559 -0.060546
-28.350822 9.884917 -1.705123
-33.770812 10.290895 -1.765475
-99.486453 45.577074 2.996510
-93.570637 48.371857 -1.463965
-93.755765 43.601374 -0.835956
-8.781090 3.936451 0.509616
-8.803214 3.705824 0.563235
-8.612801 4.020870 0.171055
-8.861941 3.794569 0.225962
-5.358022 3.472870 -2.448907
-5.719801 3.273887 -2.477700
-8.902648 3.158229 -1.754163
-9.298097 2.784627 -1.723351
-5.800739 2.841394 -2.371532
-5.910173 2.523568 -2.303701
-5.369696 2.490720 -2.468704
-6.277220 2.184741 -2.334816
-6.461179 1.891702 -2.309091
-5.868349 1.874710 -2.474297
-7.193850 4.458475 -2.316171
-7.518629 4.133999 -2.277231
-5.968542 3.956251 -2.339534
-6.270848 3.707839 -2.321075
-7.912632 3.732759 -2.252122
-8.366063 3.405178 -2.253524
-6.593002 3.344742 -2.297185
-6.927504 3.072105 -2.294441
-8.466641 2.838047 -2.151399
-8.850446 2.467003 -2.139244
-7.276378 2.663770 -2.286116
-7.626255 2.347740 -2.290668
-9.075522 5.476184 -1.767998
-9.056050 4.887148 -1.623219
-8.418744 5.371554 -2.202473
-8.954238 5.061200 -2.185626
-9.078871 4.228976 -1.490747
-9.178521 3.726345 -1.387918
-9.129640 4.436143 -2.069019
-8.811941 3.809511 -1.865172
-18.824972 9.816509 -2.390751
-8.975660 3.420831 0.281057
-26.605348 7.949883 -2.393847
-22.606906 11.060820 -1.828040
-9.174605 4.159583 -0.186837
-8.908484 3.712065 -0.114883
-8.932937 3.876671 -0.461048
-33.937183 11.320746 -0.802103
-9.335869 3.592787 -0.423257
-33.727942 10.451446 -1.765091
-93.540849 48.914859 -1.465798
-93.778006 44.148667 -0.836790
-8.956422 3.810227 0.570073
-8.516679 4.028309 0.171585
-8.930267 3.868534 0.226255
-18.799604 9.840917 -2.389169
-8.853412 3.395720 0.280210
-9.328199 3.256873 0.340438
-26.603136 7.994555 -2.394627
-22.629921 11.115142 -1.831476
-8.981913 4.097865 -0.178713
-9.046109 3.778184 -0.120023
-9.018899 3.925710 -0.467817
-28.423400 9.600819 -0.637947
-28.260813 10.053137 -1.702401
-33.702634 10.501756 -1.764333
-93.555072 49.109026 -1.466859
-8.755327 3.990584 0.509704
-8.997953 3.841926 0.571982
-8.628884 4.091855 0.171083
-8.971623 3.900516 0.226383
-18.779528 9.867942 -2.388321
-20.233128 9.763637 -2.412380
-8.750220 3.376614 0.279507
-9.139842 3.216718 0.337984
-9.238320 4.046901 -1.204898
-26.597018 8.038151 -2.395033
-22.764608 11.222274 -1.844975
-8.876339 4.071193 -0.174346
-8.635399 3.644265 -0.105213
-22.747512 10.182377 -1.664300
-9.037659 3.949328 -0.469573
-33.868651 11.416580 -0.800682
-28.105968 10.049876 -1.692787
-33.682991 10.553728 -1.763912
-97.599202 45.650113 2.956519
-93.563598 49.300579 -1.467823
-8.657230 3.966711 0.506630
-8.992619 3.856230 0.572036
-34.103357 14.964882 0.051594
-8.672909 3.802630 0.225972
-5.337423 3.517416 -2.450278
-5.697559 3.319432 -2.477524
-9.056959 3.284147 -1.791119
-9.192050 2.835911 -1.705644
-5.807561 2.898495 -2.382398
-5.893815 2.570631 -2.303521
-5.357025 2.534842 -2.470178
-6.247322 2.230037 -2.328292
-6.512050 1.957200 -2.332274
-5.883880 1.928036 -2.485925
-7.172247 4.521264 -2.319353
-7.498186 4.197911 -2.279754
-5.928005 3.995956 -2.334001
-6.246851 3.758576 -2.321535
-7.890257 3.797029 -2.252949
-8.346340 3.472809 -2.254305
-6.563258 3.394023 -2.294441
-6.906805 3.127144 -2.294231
-8.468170 2.911170 -2.156648
-8.928952 2.559128 -2.163156
-7.267969 2.724431 -2.288910
-7.611225 2.408290 -2.290439
-9.051262 5.556747 -1.770955
-8.971569 4.934353 -1.613363
-8.288084 5.383347 -2.176694
-8.898827 5.122196 -2.180436
-9.134274 4.337349 -1.505741
-9.269655 3.841417 -1.407019
-9.206877 4.557166 -2.094976
-8.989836 3.958282 -1.911162
-18.713769 9.945910 -2.385041
-20.154845 9.843363 -2.407581
-8.971009 3.498411 0.281473
-8.959949 3.823780 -0.807801
-8.995129 4.328231 -1.246728
-26.555291 8.162123 -2.393991
-10.904544 4.223193 -1.366655
-9.790938 3.502087 -1.131016
-22.659675 11.304045 -1.839692
-28.122669 12.120542 -1.007627
-8.951971 3.808370 -0.117141
-22.701447 10.289839 -1.663887
-28.250152 11.464506 -1.908624
-9.159754 3.449886 -0.063681
-28.068010 10.185217 -1.692789
-33.686640 10.728414 -1.766326
-97.546188 46.185467 2.962831
-93.519787 49.840411 -1.469487
-93.749808 45.035787 -0.837527
-8.694388 3.791690 0.560988
-33.957476 15.092516 0.052574
-18.690009 9.970962 -2.383704
-20.140085 9.875192 -2.407460
-8.830039 3.465871 0.280477
-9.355623 3.345961 0.341400
-8.900632 3.817808 -0.801652
-8.978156 4.337795 -1.244920
-26.546988 8.205123 -2.394210
-11.166145 4.334000 -1.405100
-28.126443 12.174126 -1.008417
-8.892381 3.802349 -0.115107
-22.696946 10.330453 -1.664655
-28.004231 11.419806 -1.891337
-9.217666 3.485195 -0.065497
-28.073426 10.236718 -1.694027
-33.716298 10.795518 -1.768814
-97.541138 46.370340 2.965302
-93.764485 45.223686 -0.837914
-8.712511 4.053805 0.509469
-8.448283 3.713523 0.551461
-33.699570 15.044180 0.053876
-8.914465 3.959963 0.226606
-18.675050 10.000490 -2.383591
-20.109083 9.899420 -2.405240
-8.847983 3.487747 0.280705
-9.402681 3.376696 0.342163
-8.913961 3.838960 -0.803700
-9.184075 4.109886 -1.200688
-26.551995 8.252029 -2.395738
-11.126391 4.339889 -1.400186
-8.862417 4.147687 -0.174716
-22.654012 10.354272 -1.662259
-27.973979 11.458867 -1.890196
-9.294457 3.527010 -0.067879
-28.097582 10.294872 -1.696541
-9.177515 3.307830 -0.330887
-97.495975 46.536525 2.966652
-93.802250 45.422973 -0.838564
-8.594325 4.020664 0.505703
-8.883515 3.895952 0.569040
-34.047003 15.258591 0.052345
-8.908948 3.974135 0.226660
-5.318058 3.562759 -2.452418
-5.673312 3.363962 -2.476596
-9.023328 3.352283 -1.788471
-9.328814 2.949872 -1.736433
-5.793385 2.946962 -2.384430
-5.887618 2.621379 -2.307662
-5.340605 2.577559 -2.470014
-6.209932 2.272839 -2.318955
-6.490986 2.006865 -2.328640
-5.886469 1.978527 -2.492042
-7.131869 4.573363 -2.316296
-7.466912 4.256531 -2.278974
-5.901693 4.044097 -2.334486
-6.217449 3.806465 -2.320038
-7.870905 3.862688 -2.254844
-8.318825 3.537650 -2.253019
-6.550379 3.450952 -2.298054
-6.885679 3.182017 -2.294021
-8.617405 3.029169 -2.201920
-8.951845 2.639439 -2.173042
-7.249995 2.782154 -2.288691
-7.593874 2.468236 -2.289624
-8.947909 5.592020 -1.757382
-8.946715 5.010721 -1.615142
-8.304036 5.482367 -2.191749
-8.763810 5.140573 -2.154685
-9.072808 4.396248 -1.499942
-8.862973 3.773964 -1.343697
-9.080308 4.586985 -2.071906
-9.000323 4.044596 -1.919562
-18.617568 10.082366 -2.381536
-20.064397 9.994452 -2.404873
-8.844918 3.533741 0.280954
-9.124493 4.308562 -0.186680
-8.960869 3.892776 -0.118166
-22.616255 10.465337 -1.662600
-28.010836 11.626339 -1.896366
-8.778040 3.401353 -0.052698
-28.077253 10.436931 -1.697818
-9.087748 3.327572 -0.326245
-65.425415 35.657900 -0.967650
-93.767437 45.951328 -0.838852
-73.408125 31.498373 2.711308
-8.848572 3.930889 0.568459
-72.963807 32.617141 -0.129061
-8.810474 3.983979 0.226688
-18.602435 10.111779 -2.381423
-20.042225 10.022726 -2.403819
-8.909861 3.572405 0.281548
-8.823251 3.259931 0.334673
-9.015502 4.279137 -0.182158
-8.757524 3.831439 -0.110882
-27.954354 11.654966 -1.893278
-8.919145 3.464875 -0.057006
-8.791197 3.136702 0.003252
-8.938302 3.632745 -0.399423
-8.967027 3.305484 -0.319368
-66.027990 36.116429 -0.979111
-93.780355 46.139918 -0.839235
-8.824486 3.937680 0.567769
-33.651591 15.339134 0.054575
-8.775196 3.986137 0.226693
-18.557974 10.162989 -2.379238
-19.999563 10.079822 -2.401942
-9.043218 3.651547 0.282772
-8.808680 3.286005 0.334703
-11.091208 4.445981 -1.400050
-22.641637 12.716885 -2.040290
-8.917181 4.270489 -0.178299
-8.784183 3.873499 -0.112138
-8.914910 4.081773 -0.464379
-8.898308 3.489168 -0.056557
-8.805686 3.171492 0.002820
-8.947056 3.667784 -0.400588
-9.148343 3.394316 -0.330441
-66.003446 36.371716 -0.979888
-93.745885 46.488278 -0.839316
-8.614576 3.887075 0.559924
-8.841832 4.381901 0.170393
-45.199717 18.672881 0.287362
-5.280899 3.597544 -2.446106
-5.643788 3.405738 -2.473412
-9.000358 3.423776 -1.788199
-9.299522 3.021195 -1.734258
-5.790716 3.000634 -2.391613
-5.860007 2.664364 -2.303163
-5.023174 2.796797 -2.437206
-5.323855 2.620147 -2.469851
-6.204497 2.324996 -2.322285
-6.480505 2.058950 -2.329132
-5.874409 2.025421 -2.491864
-7.104333 4.632889 -2.317778
-7.436901 4.315770 -2.278745
-5.878200 4.094038 -2.336308
-6.186030 3.853195 -2.317890
-7.840453 3.923545 -2.253537
-8.298051 3.604963 -2.253801
-6.514714 3.497365 -2.293404
-6.864127 3.236723 -2.293812
-8.611795 3.102071 -2.205662
-8.855394 2.690701 -2.152470
-7.231573 2.839734 -2.288471
-7.572369 2.527035 -2.287637
-8.961635 5.694735 -1.768604
-9.043843 5.150154 -1.640863
-8.388424 5.624951 -2.226286
-8.694230 5.192355 -2.145924
-9.194803 4.536470 -1.527271
-9.233887 3.995044 -1.409533
-8.860062 4.571257 -2.026053
-9.008204 4.130558 -1.927547
-18.546715 10.231807 -2.381703
-19.971042 10.143834 -2.401933
-8.885424 3.341540 0.335991
-8.897397 4.127869 -1.163470
-22.707918 12.845665 -2.050438
-8.819977 3.919547 -0.113736
-8.927508 4.119885 -0.466080
-8.998281 3.555479 -0.059733
-8.809442 3.649665 -0.391809
-8.948959 3.362305 -0.319151
-26.105637 14.753301 -0.260617
-93.780040 46.871658 -0.840198
-33.892444 15.090629 1.371943
-8.787515 4.391112 0.170695
-45.064418 18.783577 0.287770
-18.564666 10.278780 -2.386238
-19.932580 10.164099 -2.398782
-8.881346 3.641635 0.281789
-9.162705 4.253399 -1.204958
-11.828966 4.588167 -1.045865
-22.674463 12.873834 -2.048910
-8.998030 4.356128 -0.182441
-9.099363 4.044908 -0.124110
-23.599201 10.131592 -1.571191
-33.895050 12.256918 -0.806112
-8.916842 3.704933 -0.399407
-8.931086 3.372236 -0.318314
-65.694472 34.975333 1.677477
-26.158469 14.835950 -0.261819
-93.810891 47.070714 -0.840797
-8.928608 4.060295 0.573318
-93.818223 42.878167 -0.224874
-18.528494 10.334439 -2.385276
-19.894877 10.223371 -2.397605
-8.938932 3.694388 0.282428
-9.134286 4.275527 -1.202319
-11.791561 4.616843 -1.043139
-9.568604 3.650866 -1.108606
-22.670240 12.964479 -2.052105
-9.100985 4.435251 -0.187351
-9.171722 4.106672 -0.127064
-22.941921 10.957766 -1.699149
-23.504150 10.179260 -1.566035
-33.897416 12.377496 -0.806885
-9.000179 3.767794 -0.405671
-28.657914 9.844776 -1.480353
-65.573303 35.175208 1.678006
-26.221586 14.978398 -0.263459
-93.746246 47.406598 -0.840572
-8.869053 4.069060 0.571494
-93.751800 43.203638 -0.224039
-34.431474 14.656608 0.270688
-5.279785 3.654055 -2.457467
-5.625447 3.453268 -2.475494
-9.006520 3.505210 -1.794260
-9.160042 3.061391 -1.710119
-5.780794 3.051345 -2.395852
-5.842559 2.711026 -2.302984
-5.014545 2.841602 -2.442059
-5.212214 2.623869 -2.423839
-6.182560 2.372134 -2.319282
-6.467795 2.110505 -2.328936
-5.861985 2.072216 -2.491686
-7.074669 4.691244 -2.318692
-7.408134 4.375661 -2.279067
-5.863849 4.149883 -2.342141
-6.160887 3.903296 -2.318351
-7.827087 3.992108 -2.257567
-8.269531 3.669361 -2.252514
-6.499250 3.553248 -2.296382
-6.840392 3.290535 -2.292983
-8.616652 3.178567 -2.212404
-8.858317 2.766213 -2.157520
-7.218119 2.899015 -2.290059
-7.559632 2.588177 -2.288581
-8.886496 5.745474 -1.761142
-9.111423 5.276725 -1.661105
-8.487549 5.779534 -2.265454
-8.617559 5.239567 -2.135377
-9.000909 4.535602 -1.497766
-8.790508 4.623774 -2.016754
-8.932111 4.182464 -1.916539
-18.488655 10.388251 -2.383827
-19.858774 10.283548 -2.396664
-9.006820 3.459565 0.338263
-9.223064 4.689633 -1.298205
-8.995861 3.800908 -1.102180
-22.590249 12.113990 -0.950668
-22.703959 13.076716 -2.059123
-9.085930 4.106238 -0.124229
-22.811090 10.984934 -1.690742
-8.847480 3.581846 -0.055672
-9.045820 3.817381 -0.409387
-28.745862 9.973927 -1.486942
-26.079819 15.007409 -0.261401
-93.819670 47.812990 -0.841924
-8.803979 4.075382 0.569443
-93.782351 43.574446 -0.223680
-8.536004 4.032855 0.226851
-18.460883 10.448370 -2.384089
-19.829613 10.346963 -2.396653
-8.502290 3.596202 0.279370
-8.970782 3.479175 0.338005
-9.215122 4.721278 -1.298968
-8.963083 3.820931 -1.098840
-22.627734 13.127700 -2.055197
-8.698207 4.323963 -0.170641
-9.124504 4.155071 -0.125955
-22.853834 11.092144 -1.696785
-8.973080 3.658504 -0.059632
-8.925064 3.804356 -0.401756
-8.990369 3.486056 -0.323127
-26.447984 14.659191 0.806640
-25.988673 15.063956 -0.260259
-93.768479 48.157571 -0.841875
-8.616953 4.031025 0.562480
-93.740762 43.912846 -0.222968
-34.015042 14.736472 0.270959
-18.427744 10.468043 -2.381531
-19.803401 10.372959 -2.395134
-8.765234 3.709872 0.281533
-8.806748 3.440047 0.335842
-8.941337 4.611118 -1.255385
-8.837370 3.789445 -1.081294
-22.673784 13.200561 -2.061656
-8.743166 4.360725 -0.172818
-9.135367 4.176306 -0.126513
-22.873229 11.145129 -1.699657
-8.776004 4.188673 -0.457721
-9.109063 3.723711 -0.063816
-8.990709 3.845459 -0.406545
-28.390216 10.005570 -1.468097
-26.390444 14.681899 0.806011
-25.960471 15.101992 -0.260005
-93.762891 48.340474 -0.842088
-8.605784 4.042441 0.562309
-93.748514 44.095722 -0.222757
-8.563302 4.092013 0.227085
-5.243609 3.689311 -2.451924
-5.590388 3.491932 -2.470054
-9.061929 3.604406 -1.811005
-9.158225 3.139427 -1.713629
-5.772132 3.102839 -2.400826
-5.833444 2.760936 -2.306404
-4.995740 2.881619 -2.441903
-5.296102 2.707736 -2.472798
-6.165622 2.420766 -2.318390
-6.440141 2.158187 -2.323242
-5.748243 2.090759 -2.446664
-7.044537 4.749392 -2.319606
-7.378895 4.435341 -2.279388
-5.828401 4.192444 -2.339284
-6.146877 3.959717 -2.323375
-7.790410 4.050126 -2.254659
-8.147038 3.696706 -2.224350
-6.469695 3.602403 -2.294275
-6.823262 3.347085 -2.294630
-8.659496 3.267954 -2.229648
-8.734942 2.808517 -2.130189
-7.200591 2.956972 -2.290442
-7.544573 2.648722 -2.288938
-8.996001 5.907878 -1.793194
-9.033381 5.327460 -1.652960
-8.443914 5.845694 -2.264726
-8.603596 5.321171 -2.141367
-9.074211 4.656005 -1.516645
-9.197454 4.149106 -1.412353
-8.804998 4.716468 -2.028091
-8.992762 4.291311 -1.936906
-18.396226 10.526249 -2.381305
-19.765076 10.431918 -2.393962
-8.917758 3.799181 0.282925
-8.960228 3.523221 0.338219
-21.121646 10.044362 -2.381362
-9.151992 4.744944 -1.291789
-35.353636 19.846374 -1.866521
-22.682178 13.299623 -2.066240
-67.442117 30.985861 -2.740641
-8.751551 4.053795 -0.112723
-22.922172 10.236784 -1.529188
-8.961655 3.702647 -0.059583
-9.154113 3.469391 -0.006016
-9.226051 3.968299 -0.423254
-9.047874 3.553257 -0.327210
-26.147122 14.657124 0.801865
-26.008176 15.237264 -0.261391
-93.804042 48.734021 -0.843111
-73.454561 31.664121 0.340615
-18.312415 10.555375 -2.373743
-19.728358 10.491460 -2.393019
-8.834330 3.799595 0.282458
-9.149223 3.619528 0.341105
-20.963184 10.052009 -2.365378
-9.057640 4.396110 -1.198450
-35.476081 20.059066 -1.876873
-22.591578 13.342343 -2.060926
-66.869654 30.980246 -2.718959
-8.869632 4.134639 -0.117377
-22.772171 10.257819 -1.519875
-8.786335 3.670159 -0.054504
-9.249069 3.532703 -0.008370
-8.701192 3.798744 -0.387982
-9.183588 3.631642 -0.335697
-26.098865 14.737470 0.802108
-25.881817 15.273336 -0.259620
-93.747789 49.078397 -0.843036
-72.618164 33.479835 2.721083
-93.743574 44.812923 -0.221732
-73.420496 31.922498 0.341630
-18.287864 10.579493 -2.372408
-19.710814 10.521718 -2.392666
-8.920589 3.848677 0.283238
-8.866255 3.538451 0.337273
-20.948099 10.085108 -2.365252
-8.887049 4.671707 -1.251606
-8.824970 3.722355 -0.733934
-22.638726 13.416655 -2.067557
-23.074753 11.018235 -0.801829
-22.940913 9.959445 -0.635573
-22.851601 11.355285 -1.704227
-22.657807 10.251133 -1.512235
-8.732533 3.666087 -0.052983
-8.733145 3.827040 -0.390476
-9.293779 3.685862 -0.342453
-26.132457 14.809473 0.803534
-26.021433 15.407915 -0.262424
-93.781281 49.283041 -0.843704
-93.769501 45.005843 -0.221608
-73.363617 32.034833 0.342058
-5.221265 3.733076 -2.453296
-5.574592 3.540899 -2.473641
-9.027766 3.672885 -1.808751
-9.259267 3.248450 -1.737961
-5.771436 3.158326 -2.409480
-5.806581 2.803936 -2.302626
-5.010768 2.938554 -2.459274
-5.278346 2.749970 -2.472635
-6.150089 2.469840 -2.318202
-6.437548 2.212341 -2.327170
-5.841355 2.167036 -2.493690
-7.017193 4.809358 -2.321655
-7.352563 4.496642 -2.280811
-5.832056 4.260533 -2.353137
-6.114337 4.005770 -2.321228
-7.758541 4.110263 -2.253352
-8.218195 3.800284 -2.252010
-6.455048 3.658915 -2.297888
-6.802179 3.402044 -2.295040
-8.705145 3.359414 -2.247887
-8.806118 2.902392 -2.153120
-7.184402 3.015449 -2.291428
-7.530874 2.709704 -2.289881
-9.024892 6.023628 -1.808357
-9.093513 5.452755 -1.672168
-8.406291 5.915748 -2.265855
-8.538118 5.373829 -2.133952
-8.720128 4.575462 -1.457939
-9.221306 4.243547 -1.420984
-8.783588 4.792282 -2.030829
-8.983993 4.371849 -1.941583
-18.220961 10.655250 -2.369381
-19.656146 10.611228 -2.391371
-9.242454 3.717049 0.342917
-20.942170 10.202578 -2.369737
-9.186070 4.867856 -1.303716
-8.980771 3.829009 -0.752020
-26.126839 15.102510 -1.332043
-22.655006 13.568542 -2.074949
-22.589749 10.925206 -0.782313
-22.881141 10.061650 -0.634609
-22.476867 11.306901 -1.676727
-22.648004 10.374133 -1.514597
-8.801545 3.739190 -0.055361
-8.721633 3.420558 0.003868
-8.979021 3.971679 -0.408270
-28.094613 10.302124 -1.456456
-26.057526 14.928948 0.803857
-25.917850 15.511644 -0.261345
-93.755426 49.832918 -0.844292
-93.754944 45.542186 -0.220795
-33.868413 15.242794 0.272918
-18.203202 10.683066 -2.369024
-19.622538 10.633153 -2.388921
-8.576768 3.779469 0.280884
-9.146749 3.699945 0.341701
-20.908849 10.227213 -2.367396
-9.095456 4.841900 -1.289934
-8.854540 3.797355 -0.739073
-26.112507 15.148619 -1.332396
-22.610283 13.590266 -2.072380
-65.789335 31.114267 -2.680101
-9.000813 4.272257 -0.123019
-8.846885 3.772241 -0.056830
-8.874196 3.487552 0.000201
-8.897405 3.955837 -0.402995
-28.105499 10.355687 -1.457851
-26.221566 15.074349 0.808257
-25.828546 15.514203 -0.259990
-65.662280 35.180434 -0.528255
-93.772235 45.732244 -0.220635
-33.694889 15.230435 0.272852
-18.178489 10.706944 -2.367690
-19.604780 10.663230 -2.388568
-9.066856 3.987201 0.284894
-9.075638 3.691197 0.340829
-20.888093 10.257688 -2.366605
-9.081451 4.852894 -1.288710
-8.847430 3.810725 -0.738821
-26.078971 15.183902 -1.331620
-22.630929 13.650063 -2.076405
-65.614414 31.158453 -2.674136
-9.136615 4.346406 -0.128198
-8.856625 3.791977 -0.057228
-8.901614 3.512593 -0.000507
-28.108480 11.610948 -1.722078
-8.938611 3.643198 -0.322639
-26.121814 15.072689 0.806674
-25.784157 15.542807 -0.259453
-65.611180 35.285610 -0.527894
-73.787243 34.855942 2.775224
-73.249669 32.090196 3.191620
-93.778363 45.917231 -0.220423
-93.714872 41.661494 0.381485
-5.192354 3.772693 -2.451595
-5.558382 3.589805 -2.477228
-9.044620 3.759963 -1.817576
-9.182675 3.305104 -1.726703
-5.765207 3.211544 -2.415925
-5.788054 2.850178 -2.302447
-5.013883 2.990095 -2.470801
-5.260264 2.792064 -2.472472
-6.139494 2.520597 -2.320124
-6.429080 2.265058 -2.329036
-5.725567 2.183310 -2.447887
-6.987733 4.868130 -2.323137
-7.317326 4.553111 -2.279482
-5.817765 4.317395 -2.359637
-6.083094 4.052483 -2.319734
-7.743573 4.178510 -2.257381
-8.095296 3.825703 -2.223852
-6.426404 3.708502 -2.296417
-6.777180 3.455326 -2.294211
-8.705963 3.436615 -2.254122
-8.678399 2.941581 -2.124829
-7.165960 3.073166 -2.291810
-7.502054 2.766162 -2.286136
-9.044206 6.134920 -1.821722
-9.012717 5.501763 -1.663683
-8.355131 5.976938 -2.263274
-8.401591 5.384570 -2.107777
-9.048087 4.819240 -1.523554
-9.187689 4.315049 -1.420087
-8.878312 4.927110 -2.062359
-9.040767 4.481720 -1.961529
-18.131757 10.793851 -2.367597
-19.568827 10.762336 -2.389836
-8.789918 3.926868 0.282973
-20.830956 10.351260 -2.364892
-8.769562 4.752658 -1.240656
-22.635462 13.796441 -2.082753
-9.068575 4.368561 -0.126195
-9.210358 3.666348 -0.007998
-27.970485 11.709337 -1.715707
-28.084148 10.547460 -1.459623
-25.706428 14.999831 0.799264
-26.438846 14.673480 -0.086929
-73.039279 32.409035 3.190501
-93.753379 46.452501 -0.219575
-8.830825 4.420737 0.228394
-18.113789 10.821512 -2.367241
-19.598323 10.817314 -2.395771
-9.025038 3.737856 0.340626
-20.818990 10.385865 -2.365208
-8.801835 4.785893 -1.247026
-9.227693 4.644147 -1.234074
-9.024686 3.943956 -0.759821
-13.159282 5.281104 -1.617224
-22.626490 13.839272 -2.083827
-33.984080 15.084973 -1.047748
-22.681061 10.645128 -1.523489
-8.729214 3.807028 -0.053799
-8.840693 3.554589 0.000695
-8.938131 4.054035 -0.407432
-8.835767 3.670079 -0.317512
-25.881699 15.153063 0.803945
-26.393589 14.702851 -0.086508
-93.794018 46.655624 -0.219526
-8.879370 4.459255 0.228548
-18.088898 10.845182 -2.365907
-19.575015 10.844554 -2.394719
-8.979459 4.035194 0.284693
-9.123310 3.789608 0.342142
-20.783670 10.409277 -2.362646
-9.133542 4.967897 -1.302737
-8.861640 3.896750 -0.742913
-9.219698 3.863429 -1.073725
-22.667107 13.911637 -2.089933
-23.551578 11.689325 -0.828875
-8.716491 3.818017 -0.053521
-8.782952 3.550226 0.002002
-8.867766 4.041924 -0.402924
-9.014743 3.750686 -0.328390
-25.882889 15.207759 0.804660
-25.819443 15.837800 -0.261485
-93.806735 51.186339 -0.847055
-33.634561 15.315849 1.587803
-93.784058 46.834156 -0.219244
-5.157900 3.820174 -2.449864
-5.512620 3.633600 -2.469499
-8.833484 3.777792 -1.778474
-9.144280 3.388684 -1.724094
-5.759117 3.276349 -2.424540
-5.813547 2.925517 -2.322383
-4.952836 3.018620 -2.451421
-5.204839 2.827316 -2.455905
-6.119883 2.579087 -2.319897
-6.420894 2.328876 -2.332234
-5.814655 2.270214 -2.494869
-6.944346 4.933470 -2.322308
-7.286865 4.627357 -2.281960
-5.820179 4.399307 -2.376124
-6.050669 4.111344 -2.320157
-7.706533 4.251193 -2.256560
-8.159382 3.943217 -2.251455
-6.390537 3.767014 -2.294272
-6.743523 3.517451 -2.292103
-8.703146 3.528336 -2.260801
-8.669601 3.028349 -2.128375
-7.130393 3.137254 -2.287931
-7.492838 2.841494 -2.289960
-9.030084 6.246186 -1.830000
-8.987127 5.599858 -1.667790
-8.314115 6.063797 -2.266206
-8.607881 5.614731 -2.174911
-9.086200 4.944525 -1.537820
-9.100110 4.380449 -1.411147
-9.030147 5.111921 -2.110153
-9.016790 4.573928 -1.964495
-18.017490 10.917704 -2.362394
-19.522395 10.935184 -2.393891
-20.715135 10.497061 -2.359607
-9.076858 4.993491 -1.296728
-8.811244 3.761566 -1.019246
-23.455680 14.530824 -2.176063
-23.435441 11.770106 -0.825660
-8.826956 4.348347 -0.118110
-8.698711 3.858684 -0.053303
-8.809764 3.606610 0.001180
-23.664808 10.191156 -1.424142
-8.995394 3.792116 -0.328000
-53.321453 31.203513 1.435957
-65.285955 35.709316 2.121637
-26.203532 14.814299 -0.084729
-93.759381 47.373622 -0.218411
-93.721274 43.078780 0.387039
-18.031906 10.964191 -2.366681
-19.502427 10.964139 -2.393305
-45.142310 18.865004 0.577709
-9.107831 3.849476 0.342445
-20.692207 10.526285 -2.358595
-8.854191 4.899247 -1.261058
-8.891536 3.807461 -1.031032
-23.433556 14.567834 -2.175918
-23.390682 11.793991 -0.824325
-8.870259 4.384065 -0.119889
-23.799142 9.844851 -0.510591
-23.675316 10.239190 -1.425780
-8.977036 3.801580 -0.327165
-53.281726 31.292438 1.436484
-65.161908 35.774898 2.120032
-26.007358 14.760403 -0.082607
-93.803494 47.580334 -0.218381
-93.745168 43.267673 0.387777
-18.051359 11.013759 -2.371701
-19.445694 10.973268 -2.387830
-93.227264 38.667117 0.967835
-9.115621 3.868816 0.342687
-20.663884 10.552839 -2.356920
-22.615954 10.490535 -2.405353
-9.043167 5.012506 -1.293405
-9.214860 4.744262 -1.237939
-8.904143 4.141341 -1.106031
-8.884416 3.820903 -1.030720
-23.341487 14.562509 -2.168662
-23.399796 11.844038 -0.825374
-8.873231 4.402198 -0.120174
-8.754881 3.912910 -0.055223
-23.459056 10.192999 -1.411771
-8.891263 3.786014 -0.322316
-27.882280 17.367433 -0.300771
-26.081214 14.854473 -0.083536
-93.795407 47.761174 -0.218112
-93.774154 43.459245 0.388526
-5.129888 3.860263 -2.448932
-5.497218 3.683085 -2.473838
-9.068630 3.949049 -1.834765
-9.100508 3.454438 -1.719653
-5.743539 3.325547 -2.427304
-5.739176 2.948319 -2.299174
-4.915009 3.048763 -2.442088
-5.166252 2.859710 -2.445922
-6.117220 2.632859 -2.325336
-6.402488 2.378895 -2.330664
-5.511068 2.557484 -2.473808
-5.800336 2.316536 -2.494691
-6.912267 4.990695 -2.323223
-7.257307 4.687094 -2.282833
-5.807725 4.458489 -2.383958
-6.033181 4.166342 -2.324530
-7.683468 4.315791 -2.258455
-8.135388 4.009440 -2.252237
-6.379507 3.825823 -2.299790
-6.717642 3.570239 -2.291275
-8.636997 3.582067 -2.249037
-8.757005 3.129556 -2.156128
-7.116328 3.196644 -2.290121
-7.464874 2.898046 -2.286803
-8.986058 6.318721 -1.830077
-8.948234 5.671984 -1.667852
-8.268307 6.128533 -2.265481
-8.645573 5.730346 -2.195634
-9.061308 5.021809 -1.539485
-9.141527 4.484145 -1.423152
-8.974392 5.173384 -2.105148
-9.007353 4.656006 -1.969580
-17.984386 11.088963 -2.368921
-19.387254 11.060408 -2.386305
-8.610620 4.014498 0.282505
-9.037680 3.888874 0.341976
-20.596540 10.640771 -2.354104
-22.474079 10.555112 -2.394030
-8.900122 4.993206 -1.273097
-23.125232 14.581229 -2.152968
-23.372783 11.967821 -0.826132
-9.048221 4.079192 -0.064454
-8.993435 3.752065 -0.003507
-8.641854 3.740399 -0.308219
-28.193575 17.000768 0.863564
-25.982947 14.774651 0.977590
-26.170347 15.065150 -0.084830
-93.788747 48.314033 -0.217374
-93.728284 43.974336 0.390553
-17.935260 11.098106 -2.364168
-19.361877 11.086263 -2.385022
-8.566269 4.012013 0.282242
-8.869520 3.841763 0.339712
-20.582314 10.674178 -2.354199
-22.443693 10.584059 -2.392215
-15.792749 8.554291 -2.417448
-23.035108 14.576023 -2.145889
-23.379750 12.017121 -0.827100
-8.963832 3.757464 -0.002872
-28.051429 11.087917 -1.466447
-28.272617 17.107174 0.866165
-26.011188 14.843635 0.979243
-26.110707 15.085936 -0.084254
-93.802436 48.507120 -0.217208
-93.774011 44.174930 0.391340
-17.869422 11.135215 -2.359303
-19.316250 11.140518 -2.383152
-8.483185 4.008820 0.281761
-8.896225 3.884047 0.340356
-20.537715 10.732745 -2.352394
-22.406373 10.652248 -2.391308
-15.746192 8.593133 -2.413749
-8.950347 4.725829 -1.202556
-8.825681 3.718780 -0.677052
-22.917799 14.603462 -2.138148
-22.582110 13.259354 -1.901322
-23.371945 12.104990 -0.828079
-9.112515 4.155391 -0.066759
-8.944050 3.782342 -0.002537
-28.023519 11.178321 -1.466434
-28.282058 17.232867 0.867949
-26.004306 14.946841 0.980699
-27.561943 17.531138 -0.296792
-26.071601 15.172012 -0.084008
-93.764742 48.860534 -0.216565
-5.110740 3.906345 -2.452610
-5.470218 3.725929 -2.472913
-9.075635 4.034609 -1.842001
-9.086080 3.529649 -1.721266
-5.732517 3.377221 -2.432275
-5.726371 2.997018 -2.301874
-4.902596 3.092323 -2.446105
-5.150631 2.902467 -2.447397
-6.077200 2.673142 -2.316004
-6.389094 2.430378 -2.331155
-5.463826 2.589326 -2.459194
-5.782159 2.361613 -2.492939
-6.884508 5.050896 -2.325839
-7.230585 4.748574 -2.284806
-5.797791 4.519889 -2.393128
-6.007175 4.216313 -2.325643
-7.646165 4.373202 -2.256082
-8.107332 4.073940 -2.251986
-6.342943 3.871116 -2.295779
-6.694804 3.624421 -2.291685
-8.615912 3.651875 -2.249772
-8.882289 3.244359 -2.194019
-7.089372 3.251053 -2.288095
-7.458278 2.961522 -2.290674
-8.952922 6.398557 -1.832666
-8.929149 5.755819 -1.672014
-8.225194 6.195128 -2.265684
-8.625556 5.812096 -2.201169
-8.934052 5.046491 -1.522337
-9.245054 4.616907 -1.445899
-8.940602 5.246290 -2.105728
-8.937013 4.709802 -1.960639
-17.825621 11.185512 -2.357615
-19.275677 11.197655 -2.381982
-73.526327 31.674136 0.814941
-8.782774 3.872817 0.338996
-20.484075 10.786823 -2.349488
-22.376075 10.723783 -2.391244
-15.724097 8.644753 -2.414139
-9.222924 4.890619 -1.247294
-9.043308 3.830985 -0.699711
-22.822526 14.644166 -2.132662
-22.605900 13.367095 -1.907029
-8.629472 3.990226 -0.052320
-8.695530 3.722344 0.003236
-22.726357 10.225981 -1.368421
-8.813381 3.884921 -0.319763
-28.035295 17.206009 0.863800
-25.853975 14.970227 0.977929
-27.696433 17.735606 -0.299921
-26.011329 15.246320 -0.083528
-93.789595 49.247631 -0.216227
-93.732418 44.875189 0.394096
-17.805367 11.211624 -2.357016
-19.236242 11.215531 -2.378838
-72.997085 31.584935 0.811447
-8.885585 3.928618 0.340599
-20.462523 10.816470 -2.348698
-22.332823 10.746653 -2.387963
-15.716492 8.672377 -2.414917
-8.897989 3.793413 -0.685661
-9.031336 4.346040 -1.132147
-22.806985 14.684403 -2.133213
-22.672144 13.452224 -1.914978
-8.836370 4.091831 -0.058727
-9.078160 3.880916 -0.005940
-22.740306 10.274530 -1.370316
-8.632923 3.831227 -0.309238
-27.940370 17.209041 0.862381
-25.771880 14.977701 0.976338
-27.650621 17.767591 -0.299404
-25.888996 15.230955 -0.082244
-93.805002 49.443268 -0.216072
-93.787147 45.081837 0.394910
-17.756278 11.258401 -2.354595
-19.190264 11.269295 -2.376969
-72.915459 31.821442 0.812488
-9.044174 4.022873 0.343143
-20.428148 10.879991 -2.348223
-22.293209 10.813614 -2.386847
-15.680151 8.716357 -2.412971
-9.053941 4.862967 -1.223859
-9.024552 4.376959 -1.132840
-28.877035 18.050610 -1.526391
-23.283336 15.084027 -2.186482
-22.677888 13.550432 -1.919064
-8.856288 4.132849 -0.059571
-8.835365 3.822169 -0.000301
-8.731082 4.246625 -0.399002
-9.020380 4.013913 -0.332963
-28.166522 17.465566 0.869225
-26.032357 15.232133 0.985730
-27.635009 17.879118 -0.299778
-25.773066 15.272620 -0.081135
-93.774522 49.803167 -0.215472
-93.707803 45.405874 0.396194
-5.077521 3.942887 -2.449375
-5.439717 3.766634 -2.470484
-9.060063 4.111649 -1.844489
-8.952155 3.564024 -1.698667
-5.712808 3.424585 -2.433567
-5.783024 3.076864 -2.334075
-4.894586 3.138480 -2.452625
-5.137963 2.946696 -2.450510
-6.056209 2.720192 -2.314410
-6.368125 2.479527 -2.328897
-5.436825 2.628772 -2.454210
-5.767133 2.407676 -2.492761
-6.846731 5.104455 -2.325055
-7.181908 4.797052 -2.279628
-5.991085 4.727378 -2.491154
-5.980766 4.266102 -2.326757
-7.618685 4.435637 -2.256911
-8.075252 4.136627 -2.250702
-6.324338 3.926118 -2.298757
-6.673256 3.679252 -2.292714
-8.590655 3.720159 -2.249507
-8.899057 3.327120 -2.203889
-7.063778 3.305922 -2.286672
-7.431239 3.018271 -2.288102
-8.862083 6.439608 -1.822695
-8.890717 5.828524 -1.672418
-8.175215 6.256879 -2.264034
-8.599844 5.890746 -2.205363
-9.027059 5.185216 -1.546059
-8.965774 4.577877 -1.403553
-8.916508 5.324587 -2.108886
-8.924587 4.790761 -1.965312
-17.722291 11.314493 -2.354374
-19.147591 11.325004 -2.375568
-72.889922 32.082628 0.813978
-8.859898 3.983447 0.340765
-20.381201 10.937199 -2.346202
-22.246179 10.877236 -2.384897
-15.620975 8.748279 -2.407233
-8.902972 3.859652 -0.688053
-25.661563 15.592839 -1.144121
-23.245714 15.162801 -2.187058
-22.615975 13.609979 -1.916841
-8.938682 4.200567 -0.062325
-8.944369 3.895763 -0.003044
-22.716589 10.434659 -1.372425
-8.962732 4.024284 -0.330069
-27.921656 17.437863 0.865110
-25.997961 15.321140 0.986414
-53.835669 34.654309 -0.785239
-26.088354 15.562916 -0.084923
-65.666548 35.270277 -0.087139
-93.771392 45.799664 0.397743
-17.678006 11.364044 -2.352687
-19.122026 11.390212 -2.376492
-72.775545 32.305261 0.814761
-8.943563 4.049131 0.342242
-20.337633 10.995873 -2.344621
-22.207977 10.944725 -2.383991
-15.594895 8.797502 -2.407038
-8.916448 3.897023 -0.690367
-23.375816 15.348467 -2.204961
-22.629662 13.713328 -1.921734
-8.912174 4.222564 -0.061765
-27.999157 11.626376 -1.472687
-27.921014 17.558097 0.866695
-25.529850 15.160950 0.974202
-53.630291 34.760953 -0.782758
-26.044239 15.647006 -0.084637
-65.567441 35.482273 -0.086371
-93.712984 46.135417 0.399077
-17.650748 11.385701 -2.351111
-19.073807 11.402669 -2.372186
-72.796816 32.451142 0.815796
-8.960202 4.072250 0.342618
-20.324597 11.029825 -2.344938
-22.182502 10.975531 -2.382807
-15.571340 8.816542 -2.405191
-9.099082 4.974007 -1.236188
-8.901750 3.907634 -0.689379
-23.315492 15.361717 -2.201003
-22.601946 13.745008 -1.920946
-87.114006 37.599280 -2.447479
-8.689312 3.846099 0.002819
-28.027951 11.689047 -1.475300
-27.860054 17.581157 0.866071
-25.922427 15.440868 0.986744
-53.544367 34.824818 -0.781830
-25.847638 15.587249 -0.082513
-26.372135 14.586097 0.091837
-93.718360 46.320558 0.399805
-5.048587 3.982305 -2.448445
-5.418411 3.812866 -2.472568
-9.067393 4.198429 -1.852117
-9.112821 3.700146 -1.736218
-5.692720 3.471821 -2.434859
-5.787848 3.134527 -2.344686
-4.854475 3.166858 -2.442460
-5.106878 2.982089 -2.444620
-6.038357 2.768397 -2.314222
-6.352155 2.530191 -2.328701
-5.416327 2.670718 -2.452436
-5.751751 2.453620 -2.492583
-6.805397 5.155518 -2.323138
-7.142779 4.851034 -2.277752
-5.788324 4.651826 -2.416810
-5.950773 4.313667 -2.326567
-7.592406 4.498791 -2.258272
-8.049719 4.202266 -2.251484
-6.303617 3.980109 -2.301099
-6.647850 3.732275 -2.292506
-8.564868 3.788243 -2.249242
-8.933528 3.416352 -2.218586
-7.048339 3.364950 -2.288861
-7.418225 3.079788 -2.290215
-8.891063 6.562205 -1.839279
-9.001406 5.992327 -1.703220
-8.120057 6.314776 -2.260994
-8.553716 5.956739 -2.204199
-9.054085 5.291182 -1.557775
-9.098080 4.725540 -1.431515
-8.779186 5.339944 -2.083698
-8.890371 4.861435 -1.965034
-17.616363 11.441460 -2.350890
-19.047969 11.467857 -2.373111
-8.813411 4.046155 0.340770
-20.278999 11.087520 -2.343139
-22.135019 11.038691 -2.380858
-15.546779 8.866723 -2.405289
-9.333229 5.126138 -1.275302
-8.941028 3.955345 -0.694306
-31.156319 19.915127 -1.674700
-23.136280 15.349979 -2.187024
-22.635649 13.860907 -1.927779
-8.813553 4.230273 -0.059133
-8.822104 3.929606 -0.000499
-8.740019 4.016887 -0.318107
-27.794215 17.661591 0.866140
-25.885594 15.528620 0.987376
-27.554306 18.255794 -0.300660
-25.460368 15.469037 -0.078330
-26.105940 14.549410 0.093169
-93.758558 46.706260 0.401325
-17.559969 11.483200 -2.347496
-18.994428 11.516870 -2.370315
-20.240276 11.148579 -2.342222
-22.083782 11.099762 -2.378487
-15.487337 8.897690 -2.399553
-9.320320 5.156509 -1.275465
-9.030175 4.022742 -0.704264
-31.079855 20.003532 -1.673390
-23.134544 15.452072 -2.191412
-22.634588 13.956598 -1.931376
-8.812679 4.262905 -0.059359
-8.885606 3.986751 -0.002167
-27.707799 17.728905 0.865728
-25.879538 15.634287 0.988939
-27.541840 18.370837 -0.301126
-93.807435 56.057226 -0.856196
-25.987784 14.591372 0.093830
-93.722052 47.055088 0.402714
-17.537611 11.507771 -2.346653
-18.970184 11.542876 -2.369266
-20.209432 11.173080 -2.340329
-22.072431 11.137212 -2.378979
-15.482754 8.926943 -2.400915
-8.917069 3.994890 -0.693393
-9.120872 4.260283 -1.078943
-31.055878 20.056781 -1.673605
-22.939007 15.376576 -2.173426
-9.019289 4.369586 -0.065805
-8.615976 3.896588 0.004199
-10.114791 5.042107 -0.499403
-8.952401 4.152050 -0.331739
-27.653517 17.755608 0.865262
-26.031533 15.778339 0.994369
-27.595701 18.467859 -0.302479
-93.817961 56.262973 -0.856728
-65.683533 35.068524 2.562412
-26.148060 14.732131 0.093164
-93.745372 47.250667 0.403486
-5.031380 4.030070 -2.453659
-5.380992 3.849172 -2.467133
-9.014362 4.260296 -1.846697
-9.114875 3.782331 -1.741610
-5.673886 3.519812 -2.436887
-5.781981 3.187701 -2.350980
-4.833160 3.205610 -2.442306
-5.087007 3.022830 -2.444460
-6.028839 2.819901 -2.317550
-6.337576 2.581316 -2.329192
-5.417463 2.721726 -2.461092
-5.736013 2.499444 -2.492404
-6.969044 5.351011 -2.395453
-7.121231 4.915819 -2.281926
-5.794707 4.727034 -2.433992
-5.918828 4.359963 -2.325727
-7.557153 4.557166 -2.256968
-8.020166 4.266087 -2.251233
-6.274219 4.029278 -2.300265
-6.622034 3.785098 -2.292298
-8.538551 3.856125 -2.248977
-8.908281 3.486523 -2.217828
-7.023640 3.420185 -2.288040
-7.402913 3.140615 -2.291743
-8.862269 6.646110 -1.843302
-8.981180 6.078126 -1.707718
-8.091143 6.391771 -2.265833
-8.444956 5.982003 -2.186072
-9.029782 5.370426 -1.560085
-8.975087 4.755213 -1.415887
-8.718595 5.396906 -2.077840
-8.836357 4.922199 -1.960221
-17.482058 11.588530 -2.345835
-18.912661 11.629499 -2.368212
-8.794536 4.438504 0.286184
-20.146517 11.261986 -2.338404
-22.012984 11.237122 -2.377520
-15.456580 9.007856 -2.402958
-16.478358 8.866387 -2.415629
-23.550627 10.898224 -2.357988
-31.010356 20.233388 -1.675886
-24.382271 15.415080 -1.088459
-22.332542 15.132221 -2.117231
-9.173285 4.167159 -0.009364
-8.933080 4.193793 -0.331461
-27.107032 17.592050 0.854783
-28.324979 17.305067 1.065973
-28.133045 19.009020 -0.313564
-93.778507 56.839827 -0.857533
-25.947491 14.782031 0.094255
-93.700568 47.781559 0.405595
-17.456211 11.610806 -2.344504
-18.889977 11.656343 -2.367396
-34.123911 14.686996 0.710425
-20.115543 11.286252 -2.336510
-21.992471 11.270120 -2.376965
-15.643706 9.143914 -2.436692
-16.481027 8.900537 -2.418048
-23.543304 10.939441 -2.358833
-30.967491 20.274720 -1.674975
-22.361024 15.201499 -2.122458
-86.885529 38.963934 -2.452024
-8.794583 4.031770 -0.000383
-23.334489 10.200456 -1.200399
-27.564534 17.942443 0.866435
-27.575272 16.919064 1.044387
-52.888128 35.470398 -0.775745
-28.921268 17.936132 -0.118572
-26.173293 14.960745 0.093293
-93.756340 47.994883 0.406441
-17.435348 11.636247 -2.343906
-18.870673 11.685170 -2.367045
-93.795919 43.458223 1.001132
-34.048004 14.718411 0.709853
-20.100276 11.318964 -2.336606
-21.968340 11.301323 -2.375992
-9.174709 5.562913 -1.346777
-16.421933 8.903134 -2.410663
-23.568605 10.995304 -2.363241
-30.971619 20.346206 -1.676929
-22.158462 15.117938 -2.103616
-24.791190 15.558100 -2.147237
-8.728991 4.325531 -0.057575
-8.579475 3.961115 0.004688
-26.268933 17.177797 0.836518
-27.530499 16.951259 1.043990
-46.704243 31.480045 -0.660996
-28.885225 17.976548 -0.118294
