# .PCD v.7 - Point Cloud Data file format
VERSION .7
FIELDS x y z
SIZE 4 4 4
TYPE F F F
COUNT 1 1 1
WIDTH 1648
HEIGHT 1
POINTS 1648
DATA ascii
2.415333 -3.366735 14.970031
2.416451 -3.446295 21.927256
2.184959 -2.511442 20.952400
2.038956 -2.406315 12.981753
2.051877 -2.058737 13.778543
1.617827 -5.009423 16.663536
0.676374 -2.947810 11.639233
0.594469 -2.478699 11.440081
1.485571 -4.258723 16.460755
1.051503 -2.721303 11.723239
1.810072 -8.761648 61.436113
3.021903 -7.255684 44.861817
-2.817937 -27.392059 103.127051
1.651342 -32.867881 103.623545
1.001369 -27.975585 103.047955
-0.213827 -2.921722 11.599738
0.230061 -3.067861 11.400411
0.157233 -2.710626 11.710154
1.578648 -3.019366 11.688669
1.669435 -2.872656 13.352759
2.103949 -3.290053 12.123047
2.425663 -3.429871 15.034353
2.386714 -3.474331 21.615823
2.165697 -2.557888 20.737421
2.413041 -2.881315 15.754987
2.050229 -2.102351 13.761266
1.732814 -5.719869 16.580519
1.616759 -5.060369 16.637243
0.675235 -2.980192 11.603634
0.595933 -2.525095 11.482512
3.026152 -8.339987 40.679031
1.806843 -8.942075 61.306381
1.497464 -7.111056 64.302208
3.021004 -7.397109 44.831998
-2.819176 -27.721847 103.056962
1.076671 -20.089351 62.006157
-0.210859 -2.940975 11.503626
0.229945 -3.102275 11.378135
2.874270 -2.459516 5.314214
2.897934 -2.197105 5.629545
2.651131 -1.857800 11.205745
2.709985 -1.329652 12.142416
2.862995 -1.795659 5.814707
2.868797 -1.482805 6.067572
2.855817 -1.711187 4.882055
2.849231 -1.462814 5.059437
2.886225 -1.059953 6.352821
2.904366 -0.723304 6.619145
2.873279 -1.086627 5.314601
2.874931 -0.781819 5.493624
2.744884 -3.138190 7.336423
2.711357 -2.765294 7.627779
2.848056 -2.922909 6.230457
2.863731 -2.643730 6.597874
2.698973 -2.309004 8.003122
2.716055 -1.911064 8.465981
2.868878 -2.233707 6.959327
2.873701 -1.887118 7.290265
2.710649 -1.362546 8.857130
2.744556 -0.907422 9.390481
2.878818 -1.401581 7.632577
2.887578 -0.998279 7.963761
2.348357 -4.134416 10.243665
2.343579 -3.746441 10.980527
2.669876 -3.905780 8.887272
2.665732 -3.515325 9.439843
2.375243 -3.242837 12.010152
2.319643 -2.644831 12.538813
2.660621 -2.976676 10.027689
2.656982 -2.555322 10.596898
1.563002 -3.026890 11.540334
1.583411 -2.767351 12.522445
2.587449 -4.096030 15.361644
2.085067 -3.003224 12.620632
2.381132 -3.536093 21.550606
2.173679 -2.634192 20.819396
2.032137 -2.483642 12.919470
2.006996 -2.106218 13.418801
1.803110 -10.429465 35.082515
1.611010 -5.095436 16.553012
0.610816 -2.647696 11.945677
3.026249 -8.470744 40.659477
1.803633 -9.121605 61.174035
1.492409 -7.290747 64.053839
3.014912 -7.525072 44.716845
1.074054 -20.233662 61.779834
0.822971 -22.289753 79.658043
-0.210397 -2.975546 11.479655
-0.277464 -2.648190 11.400936
0.229854 -3.138034 11.361495
0.157000 -2.789697 11.704707
2.593707 -4.131133 15.398043
2.392237 -3.587540 21.659758
2.177035 -2.671810 20.853348
2.039733 -2.513956 12.972804
1.988029 -2.109915 13.268285
1.801888 -10.478411 35.041574
1.609547 -5.117573 16.528172
0.671101 -3.014237 11.485527
2.179314 -11.618271 61.194678
1.044323 -2.797715 11.602198
1.802668 -9.214649 61.132404
1.494455 -7.405005 64.160077
3.018881 -7.606971 44.772474
-2.856451 -28.543363 104.166004
1.072142 -20.291306 61.622766
0.822472 -22.406813 79.590613
-0.203963 -2.953628 11.290001
-0.278466 -2.671505 11.420793
0.230185 -3.212918 11.594486
2.583831 -4.165470 15.320647
2.068398 -3.041706 12.491413
2.399560 -3.668772 21.726249
2.179732 -2.742525 20.877612
2.046468 -2.564770 13.016792
2.003784 -2.169095 13.386668
1.609423 -5.171227 16.513087
0.672861 -3.063047 11.525809
0.608097 -2.691745 11.854012
1.055041 -2.867734 11.752894
1.801797 -9.406688 61.092358
1.495485 -7.617620 64.221035
3.018842 -7.750308 44.755353
1.070511 -20.458205 61.472270
0.822365 -22.676223 79.584469
-0.214215 -3.055888 11.572362
-0.279445 -2.713319 11.434981
0.230051 -3.245040 11.560110
2.878014 -2.508845 5.305941
2.894106 -2.243045 5.605773
2.652443 -1.951294 11.201118
2.704467 -1.427229 12.106720
2.862153 -1.845304 5.801155
2.872243 -1.536458 6.067486
2.861536 -1.757144 4.883334
2.853198 -1.508740 5.059296
2.886773 -1.114483 6.348707
2.906243 -0.780028 6.621438
2.872359 -1.132548 5.306629
2.874793 -0.829401 5.489858
2.744219 -3.199525 7.312281
2.709052 -2.827387 7.600986
2.837357 -2.965247 6.181724
2.853925 -2.691202 6.552435
2.697767 -2.375366 7.983524
2.713832 -1.980627 8.445631
2.868122 -2.292281 6.942274
2.868645 -1.945820 7.262824
2.709453 -1.436093 8.844845
2.744798 -0.985733 9.387544
2.876854 -1.465169 7.618204
2.888544 -1.065559 7.962035
2.354232 -4.230574 10.244882
2.332627 -3.818979 10.892846
2.669760 -3.979934 8.858855
2.662053 -3.589064 9.399617
2.271553 -3.192780 11.364693
2.279528 -2.701540 12.263324
2.656620 -3.055435 9.989501
2.653105 -2.639464 10.561762
0.084416 -2.331367 11.741774
2.417552 -3.590113 14.944889
2.409418 -3.754448 21.817918
2.190073 -2.822870 20.984657
2.041356 -2.601288 12.972481
2.025855 -2.235533 13.553887
0.660681 -3.028525 11.199492
0.593734 -2.646517 11.398537
1.803801 -9.615019 61.160341
3.016540 -7.887481 44.700248
1.067331 -20.585851 61.203395
-0.212728 -3.083917 11.518814
0.230002 -3.287924 11.570239
0.157228 -2.864980 11.581032
0.082827 -2.393760 11.879500
2.040957 -3.083535 12.282139
2.417320 -3.837578 21.889713
2.193858 -2.895571 21.020295
2.034910 -2.635799 12.918418
1.954640 -2.205828 12.993294
0.666006 -3.098408 11.333117
0.601144 -2.729195 11.626833
1.049113 -2.927714 11.652642
1.805383 -9.821625 61.213908
3.016262 -8.029959 44.678304
1.065709 -20.750883 61.052156
-0.213301 -3.125008 11.523759
0.229972 -3.336072 11.601694
0.156574 -2.929031 11.698382
1.644356 -3.045555 13.076615
2.061827 -3.134820 12.425076
2.207190 -2.946688 21.162591
2.037233 -2.660025 12.932332
1.956855 -2.229544 13.007993
0.671235 -3.149396 11.466899
0.596094 -2.718060 11.465988
1.045733 -2.936732 11.599675
1.808654 -9.939852 61.335210
3.016820 -8.103084 44.677927
1.063887 -20.807900 60.900421
0.700344 -18.768505 63.571903
0.229942 -3.356666 11.602738
0.156627 -2.943847 11.672704
2.873362 -2.550971 5.278245
2.896260 -2.293106 5.595846
2.651025 -2.042848 11.182161
2.701193 -1.525359 12.082020
2.859852 -1.893946 5.783602
2.869973 -1.587535 6.052261
2.855641 -1.796601 4.859625
2.854725 -1.553630 5.053413
2.883133 -1.167665 6.333000
2.904029 -0.836129 6.612025
2.876227 -1.179946 5.309195
2.874657 -0.876956 5.485721
2.742433 -3.259318 7.284068
2.706206 -2.888649 7.571884
2.831307 -3.011879 6.145013
2.841534 -2.735725 6.499510
2.699734 -2.444316 7.974651
2.715706 -2.052774 8.439961
2.866740 -2.350216 6.922933
2.869729 -2.008039 7.253589
2.710735 -1.510708 8.841603
2.740265 -1.062742 9.364615
2.873101 -1.527781 7.597673
2.885449 -1.131705 7.946433
2.348427 -4.304490 10.184319
2.291041 -3.837601 10.633273
2.668729 -4.052433 8.826237
2.665004 -3.671531 9.386641
2.272624 -3.288334 11.349458
2.222218 -2.733259 11.877014
2.659417 -3.141792 9.980953
2.654123 -2.728023 10.548991
2.182454 -5.019739 15.956277
2.748051 -4.618153 16.378973
1.947266 -3.003029 11.610333
2.208097 -3.016434 21.166062
2.039768 -2.705895 12.944407
1.942633 -2.257020 12.891831
2.002230 -11.499997 34.367638
1.604820 -5.343794 16.406996
0.599513 -2.777497 11.568191
1.046584 -2.977911 11.605012
1.875511 -10.547544 63.915289
3.016232 -8.244578 44.649287
-1.763455 -26.804298 83.378756
-2.141357 -23.088329 79.343964
1.060932 -20.937242 60.646149
0.701295 -19.020723 63.688358
-0.209668 -3.156899 11.403304
-0.292945 -2.911477 11.730879
0.370670 -26.507400 103.571568
0.157491 -2.937235 11.451071
2.380327 -5.853006 16.535543
2.188254 -5.085680 15.991214
2.748209 -4.671818 16.367390
1.943591 -3.035765 11.576758
1.590123 -2.635675 13.441438
2.217504 -3.097629 21.262329
2.032007 -2.738212 12.880321
1.950576 -2.308154 12.948621
2.000630 -11.601075 34.305804
2.950710 -18.844366 60.527027
1.603291 -5.391990 16.373991
0.670396 -3.220809 11.431407
0.603291 -2.839858 11.682015
1.044217 -3.008968 11.563507
1.925094 -11.064012 65.827089
3.016569 -8.388660 44.636047
-1.763758 -27.064305 83.283731
1.369286 -28.691932 82.820460
0.701962 -19.265853 63.777116
-0.286168 -2.915102 11.554468
0.369973 -26.851744 103.556666
0.156959 -2.995979 11.540614
2.389852 -5.904391 16.602365
2.192303 -5.121520 16.018085
0.084505 -2.477776 11.668248
1.940248 -3.049775 11.549239
1.617653 -2.704133 13.718620
2.219409 -3.134671 21.279661
2.034066 -2.762166 12.892099
1.956823 -2.336436 12.994565
2.000536 -11.655880 34.288018
0.669096 -3.231705 11.393786
0.616132 -2.940390 12.081719
1.458577 -4.622799 16.003910
1.048047 -3.040337 11.615798
1.927635 -11.186050 65.918638
3.020177 -8.470636 44.684212
1.408339 -3.500466 21.708889
-1.761164 -27.157636 83.121608
-2.284413 -24.860187 84.062072
1.060242 -21.222307 60.538876
0.703133 -19.419600 63.925635
-0.203317 -3.168947 11.205195
-0.275813 -2.880886 11.296081
0.157092 -3.006569 11.497275
2.875583 -2.598821 5.265761
2.901404 -2.345377 5.592587
2.648051 -2.133025 11.154737
2.700908 -1.624692 12.072209
2.859747 -1.943780 5.771093
2.869850 -1.639489 6.042152
2.863024 -1.843552 4.863693
2.860322 -1.600420 5.056105
2.889272 -1.223967 6.342913
2.905911 -0.892890 6.613430
2.872918 -1.224984 5.295056
2.875305 -0.924640 5.483047
2.746271 -3.325691 7.273337
2.709360 -2.955980 7.562513
2.821279 -3.053825 6.097508
2.833029 -2.783228 6.457078
2.700647 -2.512305 7.961486
2.712978 -2.121652 8.416625
2.860947 -2.404427 6.890342
2.868362 -2.068619 7.236417
2.709051 -1.583823 8.826243
2.737169 -1.139870 9.346904
2.876518 -1.593611 7.599306
2.887001 -1.199092 7.945563
2.359267 -4.410425 10.209800
2.275053 -3.897554 10.516985
2.666326 -4.122457 8.787650
2.662658 -3.746498 9.350813
2.311692 -3.442053 11.561077
2.324922 -2.960673 12.519298
2.655425 -3.219920 9.941542
2.648625 -2.809851 10.504908
2.407876 -6.032456 16.719252
2.205796 -5.232849 16.109831
0.085190 -2.520967 11.577266
2.748836 -4.779652 16.345512
1.610724 -2.759745 13.638594
2.223831 -3.244274 21.317572
2.296941 -3.184862 14.826197
2.204868 -2.686227 14.918246
2.005375 -11.853201 34.334805
0.603356 -2.918448 11.673785
1.047109 -3.095136 11.591200
1.876509 -11.172146 63.918663
3.020470 -8.686333 44.659113
-1.756166 -27.471989 82.748926
1.367266 -29.189243 82.564962
0.706069 -19.864251 64.304236
-0.204059 -3.228716 11.209135
-0.289148 -3.005971 11.606305
0.370566 -27.860655 104.746255
0.158903 -2.966980 11.049069
2.413334 -6.073990 16.753594
2.204154 -5.255170 16.088724
2.756238 -4.819384 16.388227
2.045720 -3.293407 12.273911
1.602571 -2.767935 13.552323
2.239695 -3.301568 21.486710
2.061928 -2.544250 13.801895
2.010836 -11.943901 34.424697
0.677232 -3.360829 11.592512
0.610128 -2.982047 11.882999
1.048270 -3.118187 11.604331
1.873716 -11.256775 63.802954
3.021520 -8.761057 44.665526
2.893689 -7.675300 49.368535
-1.757245 -27.614746 82.742227
1.066757 -21.787106 60.925594
0.709561 -20.111845 64.755904
-0.212699 -3.307640 11.449030
-0.289909 -3.028934 11.619622
0.369652 -27.925415 104.319849
2.414485 -6.104354 16.753937
2.210708 -5.297592 16.136223
0.085203 -2.557395 11.560402
2.740417 -4.818062 16.275916
2.023118 -3.277578 12.110812
1.602325 -2.789803 13.546480
2.269336 -3.379404 21.805768
2.013082 -12.014058 34.451854
2.909997 -10.850411 29.572450
0.677342 -3.380932 11.591574
0.612648 -3.018441 11.958997
1.047029 -3.133388 11.582378
0.531821 -2.462574 11.816536
3.021718 -8.833242 44.658082
2.897202 -7.763964 49.426059
-1.798902 -28.322706 84.452205
1.068649 -21.935344 61.038966
0.692005 -19.523125 62.447399
-0.215059 -3.342953 11.510246
-0.284750 -3.020471 11.488403
0.369608 -28.140895 104.467725
0.156578 -3.116268 11.542124
2.877807 -2.646614 5.252889
2.899078 -2.391974 5.571251
2.643910 -2.221946 11.120816
2.701001 -1.724152 12.063577
2.862567 -1.995400 5.765403
2.866870 -1.689925 6.024308
2.862111 -1.885664 4.849864
2.862666 -1.645741 5.051280
2.887033 -1.277464 6.330085
2.903702 -0.948844 6.603142
2.870409 -1.270142 5.282389
2.876736 -0.972493 5.481833
2.745053 -3.385795 7.245961
2.707609 -3.017985 7.536115
2.808599 -3.092287 6.042798
2.816764 -2.822728 6.392900
2.695223 -2.574330 7.925398
2.709231 -2.189514 8.388976
2.851375 -2.455129 6.846416
2.868224 -2.129864 7.222497
2.705393 -1.655698 8.802644
2.735988 -1.217409 9.336340
2.872771 -1.655899 7.577799
2.883912 -1.264962 7.928932
2.326564 -4.429590 10.008497
2.303509 -4.036321 10.647951
2.666221 -4.195832 8.757541
2.657667 -3.817274 9.303369
2.325856 -3.559943 11.622118
2.297512 -3.027808 12.323852
2.655257 -3.302388 9.918487
2.648428 -2.896759 10.485057
2.426529 -6.218353 16.822482
2.220559 -5.401275 16.196413
0.083587 -2.641094 11.691281
1.496105 -3.020976 11.614030
2.747981 -4.911346 16.306187
2.101654 -3.465531 12.648654
2.239678 -3.440657 21.471537
2.029163 -2.924772 12.827344
1.966702 -2.519280 13.048620
2.022893 -12.245621 34.593183
2.911415 -10.998975 29.541345
0.601445 -3.003294 11.600216
1.215617 -3.955588 12.730276
1.137625 -3.495300 12.891356
0.525821 -2.481076 11.579896
1.489148 -9.438324 63.927476
0.974145 -2.700666 11.675540
2.895703 -7.997086 49.374700
-1.799286 -28.717490 84.302206
1.073878 -22.373008 61.350941
0.689859 -19.757993 62.155581
-0.211637 -3.374321 11.395143
-0.279603 -3.048617 11.346830
0.156251 -3.183187 11.571727
2.437010 -6.273811 16.895897
2.228932 -5.448788 16.258803
0.084686 -2.639576 11.577551
1.492793 -3.033381 11.578646
2.003680 -3.325601 11.957004
2.242671 -3.479989 21.500126
1.952289 -2.523096 12.933418
2.026503 -12.325342 34.646245
2.912519 -11.050966 29.537660
1.592538 -9.597429 35.483390
0.539707 -2.596009 12.115841
1.442112 -9.204777 61.551135
0.985551 -2.755714 11.855971
2.895506 -8.075569 49.362565
-1.792595 -28.752753 83.965570
1.075430 -22.514083 61.438587
0.688925 -19.825725 62.025616
-0.206687 -3.357054 11.248923
-0.276922 -3.052494 11.276205
0.156588 -3.182905 11.483403
2.442228 -6.315388 16.927845
2.232527 -5.484438 16.281143
0.083234 -2.684550 11.709415
2.743293 -4.956006 16.261111
2.248383 -3.523599 21.558229
1.954757 -2.547448 12.949518
2.032061 -12.418195 34.736943
2.958097 -19.964670 60.407131
2.914802 -11.107670 29.547021
1.590126 -9.638587 35.408764
0.607298 -3.081975 11.777241
0.536356 -2.593036 11.984308
1.440137 -9.289914 61.449987
0.978686 -2.753770 11.742401
1.077978 -22.681194 61.597455
0.688152 -19.899653 61.916594
-0.278081 -3.077308 11.299159
0.331185 -22.263870 79.708598
0.156260 -3.216852 11.543142
2.878506 -2.692957 5.236203
2.898996 -2.440130 5.554844
2.642896 -2.313062 11.101698
2.696249 -1.820694 12.028780
2.861735 -2.044610 5.750307
2.874611 -1.745780 6.033532
2.861200 -1.927655 4.835710
2.860944 -1.689014 5.037190
2.884099 -1.330553 6.314989
2.904224 -1.005309 6.599914
2.872687 -1.316967 5.280230
2.869573 -1.018295 5.460097
2.742152 -3.443521 7.212778
2.713495 -3.088247 7.534808
2.803222 -3.138207 6.006989
2.808266 -2.869033 6.349919
2.696142 -2.641992 7.911203
2.712648 -2.262582 8.387317
2.838655 -2.502597 6.793051
2.861339 -2.186288 7.187695
2.706683 -1.730121 8.797667
2.734810 -1.294835 9.325171
2.879776 -1.723663 7.589697
2.886630 -1.332722 7.930818
2.346615 -4.553893 10.080240
2.297629 -4.113724 10.586661
2.667036 -4.270490 8.730443
2.662836 -3.902563 9.297695
2.739715 -3.731250 15.137394
2.654668 -3.384131 9.892910
2.647013 -2.982170 10.458807
2.460013 -6.446580 17.040159
0.083681 -2.731278 11.641251
1.979489 -3.616335 11.160652
2.252082 -3.634168 21.586313
1.953832 -2.610157 12.933061
2.042068 -12.653953 34.879611
2.914543 -11.249460 29.495920
1.586409 -9.785135 35.277532
0.593546 -3.045448 11.338755
0.534375 -2.639154 11.902711
1.438110 -9.573042 61.345758
3.028941 -9.428885 44.686611
2.894140 -8.387620 49.303047
1.082947 -23.117882 61.885951
0.685953 -20.127417 61.613970
-0.277972 -3.131892 11.280219
0.330323 -22.637203 79.586971
0.156145 -3.272999 11.525499
2.800098 -7.404058 19.696604
0.084496 -2.734237 11.555016
2.020158 -3.710840 11.426025
1.977883 -3.380538 11.753992
2.257431 -3.677728 21.640176
1.955293 -2.633336 12.941176
2.045582 -12.734029 34.929950
2.914975 -11.298752 29.484315
1.593259 -9.889628 35.444192
0.590634 -3.044063 11.244709
0.536057 -2.671194 11.965864
1.435592 -9.653162 61.216426
0.985073 -2.852509 11.832550
2.897762 -8.477478 49.361273
1.085652 -23.291041 62.054695
0.685026 -20.193519 61.483672
-0.286579 -3.199005 11.484024
0.155577 -3.320004 11.637514
2.801722 -7.440505 19.698554
2.002925 -3.697387 11.306388
1.826348 -3.443344 15.784544
2.265316 -3.725584 21.721536
1.958769 -2.659163 12.964906
2.050556 -12.824218 35.008399
2.915745 -11.349405 29.476372
1.591888 -9.937469 35.396266
0.587723 -3.042389 11.150698
0.529002 -2.640101 11.690941
1.436600 -9.759842 61.264933
0.981377 -2.860046 11.769856
2.894389 -8.546274 49.289252
1.087493 -23.441978 62.161122
0.684158 -20.261705 61.360937
-0.208424 -3.479740 11.262222
-0.290942 -3.242599 11.584526
0.156068 -3.311060 11.516111
2.882241 -2.751055 5.222270
2.896651 -2.495867 5.529490
2.642609 -2.422920 11.082549
2.695911 -1.939311 12.014233
2.860878 -2.103522 5.732140
2.868033 -1.804353 6.003524
2.861099 -1.978453 4.820479
2.862453 -1.742577 5.027752
2.888813 -1.397303 6.318290
2.906754 -1.073482 6.600789
2.874141 -1.372618 5.274350
2.870195 -1.075224 5.455241
2.740913 -3.515207 7.179596
2.706268 -3.156323 7.484851
2.787210 -3.181836 5.938810
2.797805 -2.923589 6.297335
2.692273 -2.718097 7.876099
2.714492 -2.348501 8.376322
2.829061 -2.563535 6.745073
2.848285 -2.249883 7.131060
2.704963 -1.817377 8.778374
2.735493 -1.388374 9.319567
2.875995 -1.798413 7.564993
2.884083 -1.411813 7.913457
2.344685 -4.650323 10.030886
2.203192 -4.039035 10.028578
2.668283 -4.360234 8.698303
2.668414 -4.004070 9.287451
2.227104 -3.604647 10.979328
2.262281 -3.200834 12.053369
2.653616 -3.481418 9.859975
2.642701 -3.081285 10.414358
2.800589 -7.533256 19.657366
0.083820 -2.820024 11.586647
0.010945 -2.455028 11.661246
1.995641 -3.739613 11.242853
1.983213 -3.467497 11.773014
2.890069 -4.877530 28.496719
2.317405 -3.579762 14.911729
1.955328 -2.718534 12.928379
2.060370 -13.061481 35.144837
2.917680 -11.499892 29.448418
2.818169 -18.794301 67.299827
0.598765 -3.178103 11.486436
0.524691 -2.666917 11.518916
1.441085 -10.092856 61.486524
0.985008 -2.930835 11.818376
2.895771 -8.787448 49.287428
1.091600 -23.861308 62.383067
0.681965 -20.484582 61.055242
-0.207999 -3.531320 11.231795
0.306211 -18.825828 63.919084
2.801736 -7.568388 19.655345
0.084454 -2.825873 11.518034
0.011704 -2.465902 11.608565
1.997613 -3.762043 11.250760
1.977124 -3.476310 11.725764
2.887420 -4.918919 28.461959
1.955530 -2.740100 12.926534
2.065442 -13.153296 35.224435
2.917946 -11.548456 29.434538
2.813221 -18.867183 67.147325
0.604717 -3.240538 11.668828
0.525105 -2.689364 11.532857
1.443111 -10.208465 61.585632
0.981435 -2.938393 11.757589
2.896852 -8.869809 49.297679
1.094175 -24.033339 62.540686
0.681073 -20.550274 60.928436
-0.210906 -3.571939 11.307714
0.306199 -18.962639 64.012891
0.155369 -3.415890 11.613560
2.802405 -7.602187 19.649526
0.083100 -2.870854 11.639391
0.010920 -2.492846 11.650486
1.991274 -3.768454 11.203514
1.981211 -3.502917 11.749587
2.887126 -4.964236 28.452720
1.953214 -2.758241 12.905112
2.069443 -13.237953 35.283156
2.917372 -11.593500 29.411250
2.811458 -18.962443 67.077621
0.601433 -3.236092 11.562992
0.521306 -2.680018 11.383895
0.970560 -2.920898 11.579642
2.896663 -8.948172 49.284173
1.096540 -24.200276 62.682951
0.680271 -20.619374 60.812973
-0.212719 -3.604359 11.352688
-0.294516 -3.357880 11.642737
0.306261 -19.114276 64.156368
0.155145 -3.445237 11.649406
2.876836 -2.791388 5.191156
2.895827 -2.543079 5.510524
2.638483 -2.510791 11.046444
2.694899 -2.037604 11.997286
2.860782 -2.152958 5.717998
2.877922 -1.861612 6.017252
2.862681 -2.021817 4.810822
2.860735 -1.785607 5.012922
2.887978 -1.451067 6.307829
2.904553 -1.129200 6.589103
2.878018 -1.420141 5.274984
2.870070 -1.122517 5.449187
2.739705 -3.574490 7.150776
2.714340 -3.229086 7.489607
2.781175 -3.225935 5.900687
2.788020 -2.967412 6.250175
2.693199 -2.785438 7.860764
2.681606 -2.391362 8.239485
2.815088 -2.608451 6.687432
2.834043 -2.299717 7.073243
2.702304 -1.889176 8.756823
2.731456 -1.464352 9.295483
2.865093 -1.855943 7.519419
2.881583 -1.477439 7.897089
2.739574 -5.577816 12.024613
2.228629 -4.172055 10.140371
2.666813 -4.430541 8.660998
2.659461 -4.067673 9.221740
2.273837 -3.776436 11.231871
2.745414 -4.011432 15.116774
2.651762 -3.560934 9.827409
2.646182 -3.171805 10.409470
2.799364 -7.689207 19.592674
2.290796 -5.986412 16.661803
0.085586 -2.875296 11.376851
1.989153 -3.819949 11.173915
1.965682 -3.533277 11.627082
1.832394 -3.662104 15.810433
1.532811 -2.717078 13.734111
1.883010 -3.007376 11.692943
2.080135 -13.484210 35.433976
2.916789 -11.733231 29.354139
2.812091 -19.290765 67.023721
0.594003 -3.238850 11.321688
1.368520 -4.669399 16.171336
0.524565 -2.762668 11.504029
0.981373 -3.016265 11.742874
2.893817 -9.175737 49.201731
-2.287521 -27.870840 83.022977
1.101331 -24.643245 62.948894
0.678982 -20.876739 60.621833
-0.277899 -3.315033 11.222898
0.306113 -19.520521 64.410457
-0.265062 -26.872704 103.390289
2.799794 -7.722261 19.584788
2.307814 -6.059735 16.794538
0.083575 -2.934214 11.560550
1.988547 -3.837287 11.164593
2.757880 -4.983578 17.146939
1.808250 -3.638056 15.561345
1.518811 -2.714781 13.578961
1.871115 -3.007578 11.601540
1.957031 -2.848556 12.920811
2.085207 -13.577262 35.512626
1.879136 -13.093937 36.201074
2.918236 -11.786662 29.352910
2.997294 -11.747364 32.990021
2.812035 -19.398055 66.997665
0.596335 -3.275347 11.390918
1.369935 -4.701189 16.185724
0.527769 -2.807010 11.625578
0.971110 -2.999790 11.574791
0.877854 -2.592361 11.765452
-2.286666 -27.990294 82.943479
1.104116 -24.823434 63.119637
0.679676 -21.010531 60.701269
-0.283866 -3.369370 11.361640
0.306153 -19.669315 64.537400
0.155059 -3.517549 11.612104
2.798791 -7.751191 19.565669
2.327789 -6.141542 16.951629
0.083246 -2.959199 11.583775
1.994246 -3.867110 11.196958
2.763600 -5.021921 17.179834
1.513868 -2.728256 13.522107
1.866333 -3.019032 11.562439
2.089696 -13.666446 35.579826
2.917495 -11.830819 29.327405
2.997521 -11.801381 32.975790
2.813459 -19.516223 67.009893
0.601348 -3.332327 11.543600
1.364817 -4.708544 16.105388
0.528894 -2.835379 11.666694
0.461947 -2.510899 12.048286
0.968392 -3.009441 11.527658
0.885752 -2.638252 11.909277
-2.281327 -28.059775 82.713930
1.106482 -24.992689 63.260122
0.681008 -21.172819 60.863794
-0.278854 -3.357503 11.234697
0.306226 -19.825422 64.687033
0.155190 -3.527225 11.570247
2.882886 -2.842466 5.185186
2.900982 -2.595191 5.505148
2.638262 -2.601977 11.028935
2.690907 -2.133578 11.964003
2.862149 -2.203346 5.707040
2.866378 -1.906577 5.975882
2.862606 -2.064022 4.797352
2.859833 -1.828951 4.999533
2.885051 -1.503801 6.291406
2.905764 -1.185812 6.586330
2.877910 -1.466011 5.266228
2.869946 -1.169764 5.442763
2.740185 -3.635791 7.126798
2.704426 -3.280547 7.433985
2.774480 -3.268832 5.860558
2.778238 -3.010660 6.202754
2.687261 -2.845515 7.820865
2.681455 -2.460499 8.223002
2.802380 -2.653767 6.633153
2.827783 -2.354940 7.039087
2.701626 -1.962060 8.742361
2.731244 -1.541812 9.286251
2.869120 -1.921991 7.520284
2.879667 -1.543136 7.882112
2.293838 -4.706124 9.702637
2.286373 -4.371448 10.428697
2.669016 -4.506945 8.637346
2.653161 -4.134676 9.166566
2.208557 -3.753400 10.818592
2.745441 -4.135005 15.089276
2.657552 -3.650815 9.827759
2.642743 -3.254006 10.371631
2.799341 -7.848065 19.536083
2.318304 -6.198276 16.846784
0.083930 -2.999268 11.493117
0.011341 -2.637311 11.573074
2.758465 -5.096337 17.123096
1.516591 -2.799990 13.542080
2.101557 -13.924161 35.750463
2.917592 -11.973021 29.276617
2.995970 -11.954123 32.906310
2.682784 -18.859998 63.545079
0.605520 -3.422535 11.663209
0.537928 -2.966938 12.009007
0.457731 -2.535033 11.832928
0.972514 -3.081798 11.583061
-2.281180 -28.441867 82.551947
1.111015 -25.434052 63.502553
0.682943 -21.573919 61.090203
0.306104 -20.242088 64.954182
-0.271996 -27.983335 104.298344
2.799773 -7.881060 19.527938
2.330316 -6.259113 16.937370
0.079387 -3.113130 11.916447
0.010008 -2.671062 11.648034
2.767210 -5.140525 17.176800
1.793308 -3.733265 15.386830
1.519437 -2.827585 13.569558
2.372098 -3.939124 15.259162
2.215615 -3.334982 14.904409
2.106435 -14.017084 35.824392
2.916854 -12.017012 29.250838
2.996356 -12.008686 32.893630
2.685110 -18.979700 63.581111
0.601368 -3.409886 11.530276
1.370590 -4.836313 16.164317
0.537834 -2.986320 12.002856
0.457530 -2.553180 11.821532
0.972352 -3.100476 11.576742
2.890003 -9.635430 49.067004
-2.331072 -29.134409 84.164209
1.384212 -33.194162 82.926320
0.859302 -29.639857 84.137045
0.306175 -20.399397 65.100659
2.799655 -7.944121 19.504175
2.329749 -6.312774 16.914948
0.010358 -2.704217 11.613143
1.410202 -2.948686 11.507616
1.529455 -2.891207 13.671557
2.363809 -3.974991 15.187913
2.217752 -3.386932 14.912480
2.110403 -14.161807 35.861572
2.915843 -12.106939 29.204766
2.996928 -12.117021 32.866242
2.690202 -19.223406 63.666069
0.526635 -2.934356 11.566279
0.460585 -2.620352 11.974006
0.971527 -3.135913 11.556348
0.883125 -2.747617 11.843806
-2.332128 -29.406365 84.090311
1.115915 -25.888578 63.768256
0.685399 -22.001326 61.382171
-4.089814 -27.454417 103.092200
0.305931 -20.650489 65.182539
2.882831 -2.887592 5.165257
2.903150 -2.644776 5.492369
2.636485 -2.691470 11.003018
2.677228 -2.221737 11.879437
2.862058 -2.252593 5.692115
2.870556 -1.960552 5.974182
2.862533 -2.106127 4.783550
2.863001 -1.874529 4.994634
2.884221 -1.557333 6.280114
2.905613 -1.241997 6.579373
2.874614 -1.510375 5.249916
2.869825 -1.216967 5.435966
2.737859 -3.693070 7.093540
2.705417 -3.344668 7.414150
2.769778 -3.313676 5.825285
2.771047 -3.056119 6.162112
2.692418 -2.917020 7.819265
2.711986 -2.556919 8.318702
2.792197 -2.700759 6.585820
2.812936 -2.402905 6.978778
2.697491 -2.032393 8.713980
2.727693 -1.617531 9.262917
2.863599 -1.982070 7.490678
2.882977 -1.611121 7.883674
2.265064 -4.723118 9.521696
2.246191 -4.376199 10.176598
2.678102 -4.595502 8.639561
2.656579 -4.216764 9.150878
2.203282 -3.833471 10.761126
2.186816 -3.379911 11.506114
2.648068 -3.719027 9.760464
2.622615 -3.314888 10.255666
2.801000 -8.011461 19.491221
2.355820 -6.441692 17.112209
0.083304 -3.102955 11.510682
1.911676 -3.622421 11.202626
1.418404 -3.004998 11.582877
1.516859 -2.911870 13.528074
2.370026 -4.035369 15.222655
2.123664 -14.374895 36.075291
1.809296 -13.065358 34.502180
2.916221 -12.202702 29.173108
2.998643 -12.230062 32.851536
2.701220 -19.512961 63.901340
1.377964 -4.971288 16.245400
0.526249 -2.970007 11.546235
0.458584 -2.642426 11.870246
0.964881 -3.149537 11.442426
0.881979 -2.782900 11.816463
1.121386 -26.254391 64.095925
0.687776 -22.319596 61.664534
-2.666196 -24.168637 79.957617
0.306045 -20.961452 65.452355
-0.161354 -22.217420 79.808564
2.800717 -8.042277 19.477248
2.350317 -6.453982 17.057460
0.084335 -3.098644 11.404927
0.007487 -2.794149 11.768553
1.951236 -3.944488 10.864448
1.925113 -3.666750 11.290983
1.412585 -3.011246 11.520310
2.376558 -4.071560 15.265031
2.129515 -14.476251 36.166872
2.916830 -12.252404 29.161791
2.997153 -12.276561 32.815866
2.707171 -19.661798 64.030021
1.378580 -5.000365 16.247678
0.457486 -2.652330 11.813445
0.961315 -3.155175 11.381594
0.884899 -2.813054 11.867454
1.123910 -26.432187 64.244296
0.688949 -22.478807 61.803311
-2.699911 -24.574013 80.856823
-3.119865 -21.722828 79.585851
0.306075 -21.111950 65.568649
-0.160850 -22.299462 79.611972
2.802514 -8.110926 19.467791
2.360669 -6.539286 17.124533
0.081872 -3.188531 11.620168
0.007127 -2.835994 11.776478
1.962047 -4.003202 10.924753
2.369326 -4.108819 15.201191
2.915824 -12.341979 29.115010
2.996634 -12.380003 32.774477
2.716924 -19.944501 64.233018
0.529100 -3.052637 11.648825
0.454341 -2.662784 11.652767
0.868077 -2.790948 11.550058
1.126368 -26.716984 64.362102
0.690076 -22.745377 61.931180
-3.131289 -22.044802 79.778727
0.305866 -21.372913 65.670805
-0.161016 -22.526231 79.451979
2.878197 -2.927970 5.134884
2.897103 -2.687044 5.460120
2.639392 -2.785556 10.999451
2.668774 -2.312881 11.821458
2.858314 -2.298932 5.667931
2.871163 -2.012353 5.962977
2.864121 -2.149290 4.772872
2.858035 -1.915290 4.971750
2.881299 -1.609736 6.262883
2.902056 -1.296951 6.562655
2.881685 -1.559422 5.256617
2.881424 -1.268057 5.456141
2.734974 -3.749246 7.058113
2.701505 -3.402526 7.377612
2.763751 -3.356527 5.786304
2.765798 -3.103237 6.126445
2.688599 -2.978778 7.785795
2.681161 -2.598385 8.188413
2.783277 -2.748369 6.541797
2.801774 -2.453072 6.929210
2.698798 -2.106359 8.706020
2.725100 -1.693466 9.242862
2.847336 -2.034675 7.427020
2.878166 -1.675193 7.858204
2.283718 -4.844632 9.582192
2.289128 -4.550079 10.380378
2.677559 -4.666888 8.603995
2.664415 -4.306123 9.152603
2.195458 -3.908079 10.688059
2.197170 -3.491832 11.548802
2.644953 -3.795722 9.720539
2.632215 -3.412438 10.277145
2.802427 -8.173892 19.443190
2.837275 -7.973768 21.034809
0.082989 -3.200171 11.498175
0.012081 -2.813433 11.462611
2.133950 -5.540277 16.330693
1.470761 -3.532056 11.246490
1.972874 -4.062419 10.984687
1.945852 -3.782181 11.414658
1.828608 -4.040670 15.698126
1.741405 -3.476089 15.939195
2.386602 -4.189196 15.316360
2.229186 -3.575781 14.969199
3.063108 -21.709890 53.936571
2.915869 -12.435994 29.078911
2.998040 -12.491569 32.755138
2.646033 -19.590254 62.347738
2.872973 -22.212058 81.998130
0.518185 -2.997144 11.222714
0.449538 -2.656407 11.407541
1.298564 -4.533199 16.747910
0.869792 -2.835768 11.575484
1.131654 -27.082550 64.672918
0.692337 -23.062684 62.195176
-2.803683 -25.958725 83.570982
0.330537 -27.225506 83.188542
-0.185757 -24.235595 84.589470
2.803030 -8.238878 19.424049
2.840097 -8.050195 21.035098
0.083309 -3.228726 11.450240
0.011079 -2.862414 11.509645
2.134052 -5.593906 16.316195
2.759492 -5.781804 16.141153
1.935598 -3.799627 11.333336
1.773665 -3.594373 16.279564
2.334348 -4.145470 14.922980
2.236359 -3.636258 15.015318
1.850943 -13.796643 35.286492
2.915202 -12.526768 29.035264
2.997681 -12.595483 32.714955
1.630598 -11.675146 36.066072
2.872733 -22.474441 81.940618
0.520218 -3.052862 11.296181
0.447180 -2.672159 11.286310
1.298674 -4.588516 16.738543
0.869588 -2.873496 11.565638
1.134401 -27.378355 64.808492
0.693436 -23.330353 62.317003
-2.804263 -26.223009 83.490041
0.329851 -27.459528 83.014246
2.803944 -8.273233 19.418955
2.838226 -8.078817 21.007942
0.082589 -3.263155 11.509781
0.008063 -2.918501 11.685815
2.140048 -5.637077 16.361009
2.749708 -5.787132 16.068583
1.933365 -3.813967 11.312611
1.807051 -4.067305 15.465242
1.765279 -3.603648 16.184395
1.849065 -13.838238 35.225976
2.915142 -12.573289 29.016038
2.997603 -12.647785 32.695618
2.868555 -22.571339 81.784088
1.558136 -6.118020 17.023227
0.516587 -3.039716 11.153510
0.447021 -2.689680 11.276690
1.296066 -4.605683 16.691100
0.877903 -2.924382 11.716136
1.136823 -27.556277 64.946861
0.694696 -23.496623 62.464772
-3.381426 -31.333682 99.528192
-3.482686 -25.009520 88.004198
0.329718 -27.611958 83.036123
2.880435 -2.975038 5.119324
2.902264 -2.739052 5.453514
2.637623 -2.874695 10.972128
2.654362 -2.398192 11.731787
2.855304 -2.345586 5.645178
2.878916 -2.068712 5.969462
2.867370 -2.193593 4.765286
2.862019 -1.961259 4.967911
2.883266 -1.664439 6.258135
2.901229 -1.352701 6.552971
2.875205 -1.602045 5.232434
2.889899 -1.318414 5.468603
2.733778 -3.807472 7.027516
2.704682 -3.469044 7.363985
2.761708 -3.403897 5.757231
2.761200 -3.150691 6.092203
2.686368 -3.041961 7.757379
2.681018 -2.667125 8.170312
2.772470 -2.793570 6.492092
2.786935 -2.499485 6.868332
2.692693 -2.174661 8.668958
2.723466 -1.769708 9.226069
2.833465 -2.088025 7.370495
2.871617 -1.738043 7.826581
2.275833 -4.906374 9.506954
2.220360 -4.490300 9.971997
2.674268 -4.732912 8.557356
2.657685 -4.371246 9.093999
2.210290 -4.025165 10.747815
2.205114 -3.600580 11.575182
2.636750 -3.864362 9.657876
2.635304 -3.501879 10.267642
2.806251 -8.343431 19.412278
2.840625 -8.154023 21.004003
0.082637 -3.298319 11.488774
2.153335 -5.727481 16.461729
1.935772 -3.856322 11.318665
2.916369 -12.672381 28.992082
2.998074 -12.755080 32.664171
2.802510 -22.276375 79.682885
1.563839 -6.198469 17.080617
1.400074 -5.329228 16.496210
0.528450 -3.183826 11.604373
0.452117 -2.778308 11.530091
1.295227 -4.657054 16.665895
0.867877 -2.924638 11.524088
0.697001 -23.820314 62.731073
-3.126918 -22.885888 79.386630
2.806140 -8.406131 19.387066
2.838902 -8.216975 20.966305
0.082256 -3.342933 11.506596
0.011344 -2.951103 11.459956
2.152575 -5.779114 16.439063
2.750660 -5.894092 16.041484
1.923322 -3.868438 11.222069
1.750184 -3.677190 16.003266
2.421224 -4.428522 15.528582
1.807479 -3.045078 11.686115
1.887066 -14.383692 35.978260
2.915874 -12.763612 28.949548
2.997720 -12.858694 32.623168
2.800056 -22.512429 79.555788
1.402486 -5.393444 16.516859
0.526788 -3.207775 11.535072
0.454392 -2.840224 11.641987
1.298014 -4.722943 16.698704
0.872434 -2.980850 11.601882
1.207045 -30.084512 69.780781
0.698189 -24.095383 62.861197
-3.128135 -23.141421 79.330739
0.305941 -22.743209 66.673861
2.807294 -8.441233 19.383526
2.839989 -8.254230 20.963195
0.007387 -3.020659 11.692400
2.750331 -5.919574 16.030821
1.919716 -3.879671 11.191774
1.864914 -3.416887 11.463231
1.795358 -3.044099 11.588748
2.914808 -12.805342 28.918938
2.998584 -12.915076 32.614610
2.801680 -22.654373 79.578593
2.898874 -12.157788 34.480382
0.532513 -3.279661 11.752220
0.451160 -2.827030 11.477259
1.294679 -4.736766 16.639524
0.869432 -2.988307 11.542984
1.178450 -29.341362 67.723867
0.699378 -24.260436 62.997868
0.306020 -22.909857 66.820583
2.881150 -3.020443 5.100037
2.899957 -2.784237 5.429230
2.631959 -2.959209 10.924993
2.646666 -2.488171 11.676412
2.856680 -2.395522 5.632683
2.866669 -2.111922 5.924894
2.865644 -2.234228 4.747049
2.864379 -2.006247 4.960185
2.886631 -1.719889 6.256625
2.901767 -1.408891 6.546577
2.877496 -1.648797 5.227628
2.881971 -1.362908 5.442470
2.732585 -3.865433 6.996477
2.698052 -3.522767 7.317608
2.760330 -3.451839 5.729499
2.757251 -3.198521 6.059375
2.688893 -3.110353 7.744960
2.680879 -2.735724 8.151674
2.761667 -2.838146 6.442119
2.761670 -2.536027 6.776122
2.694994 -2.249149 8.663663
2.721836 -1.845776 9.208685
2.820793 -2.141446 7.317351
2.848246 -1.791311 7.739750
2.282460 -5.001138 9.504609
2.273731 -4.688858 10.230246
2.668688 -4.794181 8.501513
2.617851 -4.378944 8.900132
2.211408 -4.116492 10.725906
2.099978 -3.515164 10.885216
2.627280 -3.930282 9.589244
2.626997 -3.575846 10.204819
2.807623 -8.536676 19.348788
2.843903 -8.368031 20.959189
-0.899720 -26.862288 103.383113
-1.544923 -23.567410 105.293053
2.181283 -5.968653 16.657749
1.917955 -3.931629 11.163560
2.437852 -4.561602 15.625306
1.863624 -14.417094 35.386581
2.914260 -12.942598 28.856189
2.997689 -13.068467 32.547519
2.869530 -23.632443 81.596165
3.025548 -12.889580 36.079337
0.527629 -3.293299 11.555573
0.457438 -2.950550 11.788477
0.864750 -3.027023 11.446437
1.178142 -29.668481 67.599239
0.701786 -24.705017 63.265649
-2.803882 -27.385437 83.041066
0.305890 -23.343854 67.056121
2.809018 -8.572535 19.346855
2.851357 -8.424739 21.007963
0.009736 -3.064149 11.522889
2.184906 -6.006286 16.680955
2.747851 -6.018646 15.980405
2.438592 -4.588573 15.624366
3.066368 -22.771878 53.616154
1.866195 -14.496200 35.422047
2.915717 -12.995927 28.852787
2.999337 -13.128379 32.547911
2.862381 -23.700827 81.346000
3.026903 -12.953661 36.078396
0.520565 -3.246262 11.280936
0.459884 -2.996086 11.909598
0.864287 -3.044212 11.434350
1.177229 -29.751794 67.497949
0.703033 -24.874658 63.408419
-2.802873 -27.505719 82.964182
0.305983 -23.515480 67.210974
2.809456 -8.605362 19.337523
2.850172 -8.455173 20.985889
0.080960 -3.482309 11.576294
0.007622 -3.110942 11.643478
2.187235 -6.040266 16.692757
2.747810 -6.044663 15.971422
2.751961 -5.721483 16.903337
2.256379 -3.941043 15.114482
1.870303 -14.588626 35.490821
2.916502 -13.046114 28.841973
2.999733 -13.182575 32.533317
2.288194 -18.753289 63.572183
3.028403 -13.018423 36.079229
0.521842 -3.277361 11.326776
0.462835 -3.047347 12.056048
0.863613 -3.060505 11.418340
1.208397 -30.815782 69.656669
0.704423 -25.051984 63.569480
-2.799875 -27.607813 82.832031
0.306047 -23.680499 67.344649
2.880339 -3.064101 5.077063
2.901387 -2.832693 5.413202
2.623180 -3.039541 10.861974
2.636740 -2.575337 11.608782
2.858789 -2.445988 5.621553
2.872997 -2.167315 5.926917
2.863919 -2.274694 4.728508
2.862673 -2.048594 4.943346
2.877435 -1.768481 6.221650
2.902307 -1.465046 6.539743
2.873411 -1.692221 5.208158
2.880294 -1.409501 5.430540
2.731956 -3.923949 6.966733
2.700145 -3.587537 7.299411
2.762272 -3.503789 5.709830
2.755245 -3.248265 6.031422
2.683500 -3.169358 7.704604
2.680742 -2.804177 8.132501
2.750237 -2.881440 6.390104
2.767084 -2.598597 6.774973
2.686919 -2.315138 8.617980
2.716867 -1.919566 9.177283
2.809914 -2.195461 7.269436
2.846347 -1.855558 7.722359
2.280245 -5.075116 9.456909
2.721369 -5.762448 12.626276
2.655774 -4.840884 8.417433
2.623050 -4.462478 8.889528
2.171259 -3.731733 11.310964
2.627148 -4.009994 9.560641
2.621952 -3.653577 10.156498
2.809550 -8.699847 19.300171
2.845223 -8.541858 20.908382
-0.915421 -28.020713 104.470934
0.008720 -3.151679 11.556131
2.198513 -6.155067 16.765596
1.939414 -4.276495 10.672385
2.781748 -5.867685 17.084027
1.337563 -2.967673 11.516121
2.455220 -4.723217 15.719830
3.073926 -23.176359 53.626858
1.881214 -14.855457 35.666357
2.917306 -13.189372 28.792710
2.999941 -13.340615 32.477986
1.647983 -12.640286 36.292937
2.290970 -19.086152 63.590228
3.029964 -13.199590 36.043530
0.533485 -3.447098 11.764529
0.456165 -3.036311 11.714659
1.288747 -4.929476 16.495998
0.867814 -3.135126 11.485203
-2.033172 -38.588456 91.179561
0.706777 -25.499338 63.824920
-2.861066 -28.555824 84.373666
-3.392560 -26.143253 85.245593
0.305983 -24.135464 67.620944
-0.195362 -26.707907 85.064561
2.811424 -8.737262 19.301604
2.852678 -8.598968 20.956702
-0.914878 -28.164253 104.346061
-1.550877 -24.615005 105.289397
2.202136 -6.193122 16.788426
1.954281 -4.328348 10.763234
1.813782 -4.438420 15.454321
1.350727 -3.017151 11.654107
2.454381 -4.747276 15.707141
2.277037 -4.076851 15.251890
3.074208 -23.264624 53.598228
1.884383 -14.940660 35.713939
2.918933 -13.243533 28.790689
3.001903 -13.402038 32.481599
2.295384 -19.228565 63.702611
3.029439 -13.255132 36.017597
0.453133 -3.023078 11.559870
1.290761 -4.965175 16.521480
0.868726 -3.158105 11.498271
0.708168 -25.678572 63.984513
0.306053 -24.303520 67.757048
2.810191 -8.764615 19.279208
2.853312 -8.634934 20.949227
-0.915205 -28.329126 104.302152
0.004489 -3.247324 11.796561
2.210289 -6.244666 16.850725
1.935924 -4.303934 10.637481
2.756923 -5.869856 16.896358
1.820084 -4.479985 15.511441
1.342547 -3.017469 11.562227
2.276483 -4.100825 15.242094
3.073713 -23.346604 53.554748
1.891909 -15.064118 35.855870
2.919720 -13.293695 28.779455
3.001676 -13.453242 32.459142
2.300730 -19.379855 63.843467
3.030363 -13.317293 36.010381
0.451345 -3.022999 11.467673
1.290345 -4.990482 16.508366
0.884644 -3.244802 11.787660
0.709430 -25.851779 64.126952
0.306160 -24.481370 67.919200
2.884858 -3.122077 5.061073
2.903547 -2.891076 5.394573
2.612017 -3.134034 10.782671
2.634214 -2.687815 11.575575
2.857955 -2.503589 5.599668
2.865014 -2.222832 5.889628
2.869642 -2.328982 4.721959
2.865014 -2.102058 4.932230
2.879377 -1.833589 6.213375
2.902133 -1.531960 6.528823
2.876478 -1.748308 5.202284
2.881715 -1.466607 5.423817
2.732994 -3.996469 6.936059
2.696220 -3.656344 7.256008
2.757566 -3.556732 5.667989
2.751928 -3.306477 5.995060
2.684415 -3.248469 7.681197
2.680573 -2.886055 8.108879
2.745086 -2.941543 6.351619
2.755294 -2.656970 6.718807
2.688196 -2.402887 8.604619
2.715195 -2.010380 9.156206
2.795425 -2.258277 7.207109
2.824108 -1.920350 7.636188
2.242977 -5.079303 9.225787
2.222325 -4.759316 9.876860
2.640547 -4.896022 8.317446
2.612331 -4.532518 8.807408
2.125903 -4.135384 10.161832
2.152335 -3.809313 11.160737
2.625710 -4.103235 9.520093
2.599367 -3.722235 10.022025
2.810768 -8.860409 19.244749
2.854280 -8.739843 20.919151
-0.652803 -22.165734 79.685355
0.008087 -3.252920 11.558823
2.230842 -6.388820 17.003179
1.930389 -4.344001 10.583261
2.782314 -6.008022 17.045641
1.833195 -4.590578 15.624599
2.481800 -4.905124 15.879677
2.297443 -4.214066 15.386277
3.076046 -23.623561 53.497080
1.903846 -15.343635 36.050593
2.921034 -13.439183 28.734447
2.874411 -13.006375 30.894174
1.601410 -12.525543 35.015163
2.309790 -19.772809 64.051709
3.031641 -13.496975 35.969453
0.456723 -3.141533 11.731993
1.295272 -5.093332 16.567030
0.863485 -3.211980 11.386925
1.238093 -32.670183 71.437056
0.712145 -26.323203 64.423905
0.306062 -24.932641 68.164278
2.810253 -8.889978 19.227653
2.855143 -8.776506 20.913292
-0.651199 -22.244890 79.479225
0.007367 -3.281700 11.595041
2.238348 -6.439200 17.059379
2.762586 -6.313605 15.987664
2.472278 -4.911805 15.803696
2.287581 -4.221039 15.304900
3.073903 -23.691854 53.421887
2.972313 -24.887373 59.160696
2.919470 -13.477886 28.697427
3.007609 -13.690344 32.450023
1.629880 -12.833189 35.727296
2.328743 -20.052114 64.610536
3.030830 -13.550998 35.939319
0.456062 -3.153883 11.696311
1.297772 -5.131546 16.599876
0.857742 -3.205925 11.277408
0.713523 -26.504197 64.579727
2.811650 -8.925837 19.225086
2.854187 -8.807372 20.892572
-0.651256 -22.365916 79.427297
0.007978 -3.291564 11.551451
2.230540 -6.443409 16.982123
2.752811 -6.316696 15.914950
2.751998 -5.996593 16.820242
2.290549 -4.251613 15.321881
3.078173 -23.812501 53.467539
2.921603 -13.534526 28.700328
3.005820 -13.734007 32.408636
1.629788 -12.890237 35.707576
2.260466 -19.518683 62.482795
3.030309 -13.606324 35.912854
1.442136 -6.006452 16.961827
0.446632 -3.066381 11.219850
0.860662 -3.237552 11.327237
0.715058 -26.693960 64.755548
-3.370965 -26.912680 84.401091
2.882526 -3.163739 5.034019
2.902740 -2.937134 5.372569
2.594675 -3.201900 10.676636
2.617594 -2.766501 11.471840
2.854954 -2.549482 5.575399
2.878490 -2.283453 5.908643
2.872069 -2.372465 4.711192
2.863312 -2.144129 4.914662
2.881353 -1.888091 6.206841
2.901997 -1.587701 6.519167
2.884355 -1.798096 5.208758
2.880825 -1.513332 5.412899
2.730686 -4.051919 6.900151
2.702679 -3.726791 7.250879
2.760176 -3.609169 5.649127
2.754454 -3.361099 5.978371
2.680613 -3.308629 7.645315
2.680443 -2.954175 8.088531
2.742483 -2.993126 6.323805
2.749672 -2.708970 6.683980
2.687543 -2.474477 8.586165
2.715008 -2.086754 9.142706
2.785152 -2.311326 7.160275
2.812355 -1.977509 7.585861
2.277214 -5.240720 9.359351
2.219524 -4.835088 9.827224
2.637273 -4.959402 8.269226
2.653290 -4.680630 8.939488
2.127439 -3.854892 10.977715
2.613708 -4.162878 9.439014
2.590670 -3.792735 9.955912
2.810558 -9.015826 19.177126
2.854477 -8.909884 20.856118
0.009603 -3.323131 11.432445
2.810101 -8.305057 21.993041
2.760119 -6.412077 15.934895
2.743873 -6.060608 16.738787
2.506538 -5.085997 16.024320
3.078671 -24.074159 53.372763
1.659847 -13.434936 30.670621
2.921243 -13.671491 28.636001
3.006511 -13.893813 32.356210
1.629692 -13.063079 35.653657
2.253398 -19.754384 62.193023
3.030147 -13.778800 35.851794
1.461138 -6.177899 17.208178
0.445456 -3.109782 11.154231
0.717361 -27.149705 64.993505
-0.190124 -27.523128 83.014822
2.810523 -9.046864 19.163432
2.854432 -8.943560 20.842588
0.007811 -3.367760 11.532567
2.808968 -8.337198 21.971091
2.744618 -6.400962 15.825040
3.078572 -24.158911 53.335366
2.920017 -13.711573 28.602298
3.008478 -13.955423 32.358803
2.249497 -19.817478 62.047840
3.031509 -13.842968 35.849300
1.455503 -6.179811 17.119274
0.442976 -3.099660 11.027123
0.854373 -3.284717 11.196213
-1.821881 -27.085553 65.564030
0.718268 -27.308104 65.086336
-0.189735 -27.612914 82.844563
2.811922 -9.082709 19.160581
2.854615 -8.977955 20.830850
0.006701 -3.402639 11.591809
2.816246 -8.395330 22.022137
2.749735 -6.439143 15.848858
2.726202 -6.075205 16.600274
3.079154 -24.249277 53.310616
1.655029 -13.490454 30.527942
2.920640 -13.760749 28.588456
3.006691 -13.998784 32.317065
2.246778 -19.891471 61.938873
3.030267 -13.894626 35.813047
2.667252 -11.882287 34.375015
0.453949 -3.247609 11.575609
0.857505 -3.317602 11.249693
-1.820197 -27.165458 65.462574
0.757097 -29.489283 70.090625
-0.189884 -27.739010 82.786349
2.884012 -3.209382 5.014880
2.904178 -2.985237 5.355314
2.600726 -3.298157 10.684087
2.621843 -2.865779 11.475430
2.857070 -2.599636 5.563022
2.864826 -2.324113 5.859105
2.871180 -2.413237 4.693299
2.864866 -2.188311 4.903723
2.881936 -1.941725 6.196225
2.902544 -1.643692 6.510930
2.876291 -1.838847 5.179302
2.883060 -1.561364 5.408849
2.731191 -4.111376 6.872397
2.695517 -3.778160 7.201020
2.754829 -3.650804 5.609880
2.747930 -3.404521 5.937185
2.682094 -3.375106 7.627092
2.680316 -3.022136 8.067652
2.740514 -3.045132 6.297378
2.748346 -2.764717 6.661455
2.687880 -2.546816 8.570923
2.715300 -2.163369 9.130521
2.771899 -2.361335 7.103860
2.798867 -2.032845 7.529519
2.126069 -4.940403 8.569821
2.203947 -4.880393 9.708383
2.633085 -5.020477 8.217127
2.656733 -4.761748 8.919195
2.135514 -4.324915 10.158070
2.115513 -3.922844 10.875963
2.586865 -4.196575 9.293917
2.592559 -3.878423 9.937679
2.811790 -9.175590 19.119156
2.851955 -9.070478 20.769652
2.817565 -8.506442 21.997008
2.750499 -6.212203 16.740184
2.543905 -5.296295 16.258421
3.075974 -24.479203 53.144488
2.919447 -13.892963 28.514039
3.004575 -14.144371 32.230258
1.659885 -13.628992 36.334751
2.238985 -20.115799 61.624971
3.028957 -14.061005 35.735697
2.677446 -12.096785 34.469756
2.308565 -22.525632 79.556458
0.456143 -3.332802 11.678410
2.902038 -12.823923 48.739071
0.756018 -29.792004 69.880430
-2.860692 -30.512002 83.577200
-3.382992 -28.055744 84.295643
0.325042 -31.751887 83.056250
-0.198648 -28.684280 84.314555
2.813190 -9.211434 19.116073
2.848049 -9.091249 20.724598
-1.535881 -26.792711 103.462328
2.817080 -8.540554 21.980374
3.081124 -24.607972 53.204776
2.918559 -13.934443 28.483645
3.004511 -14.195913 32.208490
1.658765 -13.677474 36.287470
2.235092 -20.177102 61.479503
3.031479 -14.130802 35.747623
2.682278 -12.175347 34.521199
2.310441 -22.674068 79.602352
0.456763 -3.360052 11.706690
2.902304 -12.903374 48.727100
0.755064 -29.858642 69.728880
-2.910339 -31.132111 84.883558
-3.336168 -27.825127 83.140979
-0.199198 -28.840543 84.338129
2.812378 -9.270741 19.082717
2.844980 -9.148235 20.673152
-1.536664 -27.119483 103.378688
2.815867 -8.607903 21.945203
2.759137 -6.314181 16.772313
1.725077 -4.316282 15.594677
2.758950 -5.840775 17.788495
3.079405 -24.764364 53.101028
2.916072 -14.013718 28.415594
3.004027 -14.297238 32.161163
1.656624 -13.775360 36.196599
2.232384 -20.349254 61.346500
3.031412 -14.245520 35.706016
2.693362 -12.339992 34.644513
0.452527 -3.347779 11.489319
1.315080 -5.539241 16.789334
2.901406 -13.055684 48.677751
0.755433 -30.119873 69.731586
2.883974 -3.253184 4.992098
2.904870 -3.032477 5.335976
2.531947 -3.296244 10.327181
2.618273 -2.956674 11.437844
2.860650 -2.651051 5.553722
2.865449 -2.375127 5.845037
2.870293 -2.453858 4.675093
2.867235 -2.233018 4.894161
2.881823 -1.994848 6.183365
2.897643 -1.696918 6.487456
2.873810 -1.882558 5.161967
2.879830 -1.606851 5.391784
2.724956 -4.160048 6.823714
2.692173 -3.834435 7.163147
2.749485 -3.692030 5.570364
2.742055 -3.448296 5.897435
2.679882 -3.436697 7.595707
2.680193 -3.089935 8.046241
2.737917 -3.096183 6.268800
2.746410 -2.819654 6.636698
2.682786 -2.613898 8.534426
2.709393 -2.235196 9.092927
2.757457 -2.409587 7.043456
2.782483 -2.085437 7.463449
2.249465 -5.326031 9.144384
2.207881 -4.970673 9.693919
2.661914 -5.147951 8.287770
2.648704 -4.821254 8.852310
2.122883 -4.027618 10.894498
2.554514 -4.218798 9.125324
2.534223 -3.870735 9.644374
2.813268 -9.335810 19.061701
2.848078 -9.225671 20.670980
2.816841 -8.682118 21.928357
2.748255 -6.642189 15.763442
1.876205 -4.293659 10.733912
2.761479 -5.904232 17.790018
3.080192 -24.941288 53.042088
2.917494 -14.112489 28.388603
3.000463 -14.382797 32.076745
3.032554 -14.365974 35.678808
2.717660 -12.569672 34.953910
1.893227 -18.646499 63.579329
0.450556 -3.362164 11.384606
1.322873 -5.631431 16.897014
2.902471 -13.216976 48.662599
-3.326853 -28.269696 82.723851
