# .PCD v.7 - Point Cloud Data file format
VERSION .7
FIELDS x y z
SIZE 4 4 4
TYPE F F F
COUNT 1 1 1
WIDTH 1612
HEIGHT 1
POINTS 1612
DATA ascii
28.660270 -14.383982 1.347489
26.503203 -14.735707 0.016019
26.601743 -13.559312 0.198757
9.477195 -5.979457 -1.220057
9.796195 -5.760339 -1.169461
28.768219 -13.228426 0.389162
28.832387 -12.130508 0.575158
10.305463 -5.472305 -1.133211
10.763078 -5.246602 -1.093896
10.147946 -5.559366 -1.547716
10.521062 -5.335880 -1.507720
11.266954 -4.943038 -1.053326
12.988555 -5.179471 -1.137728
11.005309 -5.009953 -1.474305
11.447655 -4.782991 -1.440461
9.677823 -6.119745 -0.417899
9.903791 -6.062555 -0.356325
9.381115 -6.110345 -0.810353
9.748457 -5.878030 -0.757249
11.000533 -5.834995 -0.320117
27.016108 -13.323377 -0.878102
10.248226 -5.632744 -0.711375
27.010167 -12.040099 -0.680023
26.908829 -10.935830 -0.489515
26.950316 -12.532823 -1.749721
26.920800 -11.307313 -1.477306
28.856323 -18.458379 0.805362
27.142442 -16.329674 0.951120
28.728085 -19.161440 -0.426529
28.847010 -17.572480 -0.209111
28.826771 -15.541076 1.174331
28.681942 -14.451503 1.349208
26.511119 -14.794907 0.015744
26.473532 -13.545919 0.198743
9.414709 -5.980816 -1.213623
9.799660 -5.804309 -1.172596
28.762238 -13.335636 0.389263
28.802843 -12.224854 0.575151
10.291217 -5.506445 -1.133711
10.728292 -5.271328 -1.091810
10.107604 -5.578359 -1.543914
10.489727 -5.361439 -1.505495
11.153209 -4.933510 -1.042487
13.170563 -5.302000 -1.158275
10.978295 -5.039267 -1.472720
11.421168 -4.814080 -1.438948
9.661409 -6.152179 -0.418164
9.904512 -6.106267 -0.357523
9.353136 -6.134082 -0.809509
9.732849 -5.910596 -0.757631
10.981668 -5.869397 -0.320170
27.018295 -13.430469 -0.880017
10.212684 -5.654890 -0.709878
26.995368 -12.135562 -0.680918
26.899713 -11.030916 -0.490299
11.120053 -5.108995 -0.603897
26.915859 -11.405073 -1.479372
28.824528 -18.566275 0.805774
27.111003 -16.427251 0.951548
28.718567 -19.286263 -0.427808
28.806487 -17.672361 -0.209474
28.835141 -15.663218 1.176135
28.669721 -14.558736 1.350422
26.500527 -14.898775 0.015354
26.396650 -13.611368 0.198632
11.206707 -4.785082 -2.369934
12.433591 -4.589304 -2.460558
3.423436 -1.746538 -1.448859
3.594205 -1.618151 -1.443199
3.017465 -1.607025 -1.507145
3.201261 -1.528076 -1.523626
5.848713 -2.233897 -2.273105
6.141742 -2.003455 -2.278499
6.654213 -4.667017 -2.336710
7.066801 -4.418279 -2.313780
7.527741 -4.076873 -2.292374
7.753953 -3.672947 -2.211613
6.111266 -3.443248 -2.279672
6.408552 -3.185306 -2.252646
8.507043 -3.381969 -2.274791
9.167012 -3.118029 -2.316462
6.800634 -2.832361 -2.244188
7.136833 -2.553531 -2.233799
9.014875 -6.353444 -1.936674
9.516184 -6.007967 -1.870942
8.190278 -6.048411 -2.359188
8.608212 -5.666489 -2.288330
10.124283 -5.565018 -1.813190
10.781746 -5.211488 -1.769917
9.436403 -5.387576 -2.312006
9.769591 -4.968727 -2.227080
9.393728 -6.009008 -1.213414
9.738482 -5.808988 -1.166700
28.792001 -13.459946 0.389624
28.831719 -12.344417 0.575925
10.233442 -5.516257 -1.128564
10.677486 -5.287672 -1.087791
10.068954 -5.598008 -1.540398
10.447821 -5.381191 -1.501553
11.129943 -4.964925 -1.041719
12.976849 -5.269756 -1.140104
10.931545 -5.058915 -1.468127
11.367327 -4.833037 -1.433515
9.619878 -6.167939 -0.416806
9.856096 -6.118930 -0.355937
9.318504 -6.153095 -0.807942
9.679925 -5.919783 -0.754338
11.002874 -5.925910 -0.322135
27.164549 -13.610624 -0.887709
10.192652 -5.685691 -0.709763
10.549266 -5.413577 -0.651640
27.003834 -12.241794 -0.682560
26.901322 -11.130564 -0.491339
11.236634 -5.207483 -0.613615
26.938056 -11.514674 -1.483128
28.869275 -18.724432 0.807814
27.114974 -16.546661 0.952986
28.720093 -19.418991 -0.429314
28.833532 -17.814294 -0.210788
28.860503 -15.795131 1.178558
28.649988 -14.662253 1.351383
26.506880 -15.012551 0.014867
26.440058 -13.739494 0.198511
9.355893 -6.005019 -1.209195
9.740963 -5.831394 -1.168382
28.794053 -13.516208 0.389724
28.832223 -12.398338 0.576136
10.227990 -5.534133 -1.129034
10.652970 -5.296195 -1.085888
10.044478 -5.604802 -1.537751
10.453112 -5.404865 -1.503847
11.116471 -4.979759 -1.041133
10.916199 -5.072513 -1.467056
11.354028 -4.848370 -1.432753
9.598277 -6.175194 -0.416073
9.814188 -6.113926 -0.354140
9.302000 -6.163104 -0.807247
9.666992 -5.932735 -0.754024
10.792548 -5.831240 -0.312536
27.027034 -13.594367 -0.883097
10.150657 -5.682616 -0.706843
10.605814 -5.464404 -0.656941
27.015176 -12.298328 -0.683620
26.907521 -11.182757 -0.492002
11.113107 -5.169606 -0.605263
26.930677 -11.561623 -1.483859
28.859629 -18.782820 0.808173
28.684956 -17.573708 0.996764
28.737148 -19.496728 -0.430432
28.845978 -17.884861 -0.211433
28.831911 -15.838390 1.178388
28.678141 -14.733785 1.353384
26.519421 -15.074994 0.014554
26.437664 -13.791137 0.198458
9.349711 -6.043047 -1.211238
9.688283 -5.841024 -1.163682
28.714896 -13.589193 0.389366
28.818292 -12.499976 0.576338
10.184092 -5.551486 -1.125701
10.632256 -5.327691 -1.085511
10.017780 -5.631235 -1.536319
10.388419 -5.412418 -1.496219
11.094881 -5.011998 -1.040578
20.221302 -8.391547 -1.891929
10.881897 -5.098005 -1.464382
11.312859 -4.872672 -1.429155
9.578347 -6.205188 -0.416122
9.797815 -6.146751 -0.354381
9.273897 -6.186528 -0.806403
9.634334 -5.954442 -0.752740
10.801576 -5.880634 -0.313926
26.894728 -13.633585 -0.879636
10.140889 -5.719361 -0.707667
10.626880 -5.518138 -0.660132
26.999477 -12.393991 -0.684516
26.893861 -11.276480 -0.492692
11.062214 -5.187813 -0.602829
26.939463 -11.666061 -1.486844
28.846687 -18.904175 0.809000
28.691961 -17.702661 0.998351
28.723008 -19.619711 -0.431640
28.855192 -18.016784 -0.212534
28.835606 -15.959047 1.180073
28.671982 -14.844969 1.354879
26.488748 -15.168143 0.014301
26.429060 -13.892748 0.198323
3.025767 -2.084146 -1.468916
3.213716 -1.984871 -1.468171
11.162202 -4.869992 -2.368845
12.397773 -4.686992 -2.461051
3.400346 -1.768203 -1.445200
3.613619 -1.662291 -1.457700
3.006654 -1.631999 -1.508859
3.176655 -1.546688 -1.517909
5.812533 -2.271944 -2.266099
6.133452 -2.054222 -2.282002
6.990446 -4.446828 -2.299989
3.573627 -2.331790 -1.399883
7.462554 -4.117059 -2.282240
7.834235 -3.788381 -2.244992
6.073084 -3.484716 -2.275903
8.511038 -3.461841 -2.283925
9.137376 -3.188068 -2.315573
6.816912 -2.903202 -2.258181
7.113560 -2.608274 -2.233277
8.999885 -6.450347 -1.945163
9.401574 -6.038815 -1.857187
8.007490 -6.008541 -2.318471
8.809930 -5.902691 -2.357986
10.014135 -5.606319 -1.800805
10.682817 -5.267002 -1.760077
9.384208 -5.455957 -2.309939
9.722135 -5.041096 -2.225515
9.290629 -6.045609 -1.205293
9.671083 -5.872214 -1.163959
28.482495 -13.587718 0.388070
28.811311 -12.604765 0.576666
10.164382 -5.582210 -1.125515
10.592008 -5.348943 -1.082773
9.968810 -5.644452 -1.531025
10.348197 -5.432593 -1.492561
11.089390 -5.051660 -1.041827
25.812894 -10.841176 -2.473753
10.833297 -5.116240 -1.459516
11.260776 -4.891794 -1.423982
9.536761 -6.220516 -0.414764
9.742696 -6.154527 -0.352412
9.242456 -6.207440 -0.805193
9.604995 -5.978008 -0.751780
10.716455 -5.876915 -0.310788
26.536800 -13.555698 -0.867040
10.070770 -5.720686 -0.703065
10.529838 -5.508908 -0.653748
27.012386 -12.503152 -0.686339
26.914797 -11.385044 -0.494259
26.938716 -11.766519 -1.489225
28.861541 -19.044365 0.810446
28.696726 -17.830656 0.999921
28.736288 -19.762062 -0.433441
28.850327 -18.140268 -0.213408
28.864930 -16.094495 1.182669
28.686619 -14.967309 1.357253
26.521646 -15.298431 0.013610
26.488862 -14.031079 0.198194
9.290842 -6.087954 -1.208334
9.628514 -5.887718 -1.160684
28.275571 -13.597300 0.386903
28.807620 -12.711380 0.577007
10.106620 -5.591316 -1.120377
10.551734 -5.370127 -1.080046
9.947132 -5.673603 -1.530482
10.316661 -5.457411 -1.490335
11.071183 -5.085489 -1.041676
25.805666 -10.933853 -2.476712
10.804243 -5.143986 -1.457658
11.239440 -4.924579 -1.423251
9.501796 -6.240252 -0.413845
9.732886 -6.191496 -0.353036
9.222424 -6.236314 -0.805242
9.577286 -6.002655 -0.750996
10.700929 -5.912402 -0.311008
26.488271 -13.636116 -0.866948
10.066002 -5.760274 -0.704352
10.461063 -5.514394 -0.649658
27.001394 -12.601519 -0.687415
26.911456 -11.483678 -0.495236
26.930313 -11.863962 -1.491179
28.845920 -19.164905 0.811237
28.645155 -17.923806 0.999919
28.709630 -19.877323 -0.434394
28.834865 -18.257570 -0.214166
28.751160 -16.149443 1.180417
28.681356 -15.079710 1.358817
26.457448 -15.372437 0.013595
26.465296 -14.125487 0.198062
9.254732 -6.084607 -1.204364
9.627424 -5.907974 -1.161891
28.110205 -13.571276 0.385942
28.805623 -12.764667 0.577194
10.097579 -5.607054 -1.120397
10.534228 -5.381960 -1.078998
9.919228 -5.678023 -1.527243
10.292171 -5.464979 -1.487795
11.057549 -5.100171 -1.041090
25.747974 -10.956939 -2.472579
10.788800 -5.157306 -1.456588
11.204330 -4.929870 -1.419361
9.486778 -6.251677 -0.413543
9.691088 -6.185947 -0.351238
9.191139 -6.235836 -0.802940
9.552502 -6.007876 -0.749516
10.677504 -5.921143 -0.310359
26.535687 -13.713625 -0.869792
10.030962 -5.760705 -0.702051
10.462672 -5.536383 -0.650534
27.002983 -12.654097 -0.688178
26.916987 -11.536149 -0.495900
26.938737 -11.918351 -1.492944
28.855342 -19.236873 0.812012
28.574460 -17.941958 0.998695
28.704315 -19.940645 -0.435039
28.836222 -18.322120 -0.214666
28.689034 -16.173681 1.179130
28.685617 -15.139651 1.359897
26.448519 -15.423007 0.013432
26.476256 -14.184989 0.198003
3.199897 -2.011552 -1.469725
11.124163 -4.957795 -2.369352
12.328333 -4.771369 -2.454685
3.370699 -1.785875 -1.438581
3.545945 -1.663237 -1.434601
2.992532 -1.655011 -1.508895
3.208209 -1.595125 -1.540964
5.800167 -2.319937 -2.268981
6.115912 -2.101780 -2.282059
3.605488 -1.261636 -1.554963
7.460339 -4.193511 -2.292538
7.692870 -3.793190 -2.211773
6.123422 -3.580361 -2.307315
6.398853 -3.307812 -2.268970
8.510745 -3.540441 -2.292054
9.076277 -3.246361 -2.306431
6.797873 -2.958501 -2.260066
7.095196 -2.664915 -2.234521
8.802928 -6.411816 -1.911747
9.316567 -6.087902 -1.849669
7.894622 -6.020247 -2.298866
8.670881 -5.907774 -2.332345
9.936265 -5.665254 -1.794666
10.564349 -5.311355 -1.746818
9.328182 -5.521822 -2.307004
9.658652 -5.104656 -2.220202
9.243277 -6.118976 -1.205650
9.561289 -5.908270 -1.155282
27.831948 -13.543421 0.384352
28.814100 -12.877075 0.577731
10.053608 -5.623581 -1.117053
10.493902 -5.402723 -1.076260
9.897449 -5.706870 -1.526689
10.257091 -5.487523 -1.484991
11.026638 -5.127718 -1.039516
11.512964 -4.874181 -0.997266
10.736590 -5.173229 -1.451177
11.163025 -4.953291 -1.415752
9.438561 -6.262044 -0.411754
9.669445 -6.215006 -0.351183
9.154715 -6.252961 -0.801194
9.512999 -6.024618 -0.747556
10.566573 -5.901562 -0.305965
26.629982 -13.869192 -0.875480
10.005474 -5.787842 -0.701472
10.395686 -5.542241 -0.646576
27.027498 -12.769726 -0.690420
26.922254 -11.638828 -0.497087
26.951630 -12.025657 -1.496245
28.852200 -19.366459 0.813109
28.650700 -18.116226 1.002271
28.734142 -20.096212 -0.437244
28.862080 -18.466526 -0.216010
28.883755 -16.404864 1.187363
28.690260 -15.257796 1.361916
26.487117 -15.557889 0.012689
26.492540 -14.301332 0.197886
9.184253 -6.120902 -1.199714
9.553928 -5.945597 -1.156993
27.679525 -13.576380 0.383530
28.809422 -12.983984 0.578071
10.038839 -5.657004 -1.117553
10.467606 -5.430874 -1.075242
9.851836 -5.721537 -1.521998
10.221972 -5.510035 -1.482196
10.970603 -5.143094 -1.035129
11.431449 -4.881452 -0.990486
10.705634 -5.199684 -1.449047
11.127093 -4.979114 -1.412936
9.415064 -6.289273 -0.411588
9.632710 -6.234223 -0.350276
9.134539 -6.281559 -0.801243
9.490197 -6.052170 -0.747272
10.474891 -5.892502 -0.302501
26.599919 -13.960146 -0.876178
9.955989 -5.800631 -0.698737
10.388230 -5.580503 -0.647483
26.997556 -12.859671 -0.690901
26.905193 -11.732100 -0.497731
26.922313 -12.114279 -1.496938
28.840283 -19.490699 0.814001
28.687424 -18.266454 1.004741
28.699713 -20.207115 -0.438053
28.816853 -18.565697 -0.216352
28.883502 -16.525441 1.188986
28.671594 -15.363891 1.362983
27.199568 -16.096919 0.006963
26.439977 -14.380527 0.197763
9.184186 -6.141943 -1.201230
9.515858 -5.942326 -1.152976
27.543382 -13.562580 0.382753
28.814207 -13.040741 0.578350
10.002234 -5.656607 -1.113964
10.443019 -5.438767 -1.073340
9.840895 -5.735854 -1.521721
10.206128 -5.522121 -1.481078
11.037395 -5.196791 -1.043620
11.507361 -4.936133 -0.999235
10.684824 -5.210115 -1.447159
11.104602 -4.989821 -1.410871
9.399995 -6.300523 -0.411286
9.612665 -6.242601 -0.349723
9.106547 -6.283083 -0.799298
9.465410 -6.057136 -0.745792
10.423926 -5.884698 -0.300513
26.544171 -13.983973 -0.874863
9.963695 -5.826429 -0.700304
10.358238 -5.585132 -0.645789
27.005852 -12.915901 -0.691904
26.913907 -11.786366 -0.498492
26.941144 -12.173845 -1.499392
28.845681 -19.560712 0.814705
28.707210 -18.342745 1.006038
28.698618 -20.274108 -0.438809
28.839363 -18.644635 -0.217172
28.912582 -16.602795 1.190811
28.655960 -15.413559 1.363284
27.393451 -16.271315 0.005297
26.438128 -14.433499 0.197707
2.988773 -2.129173 -1.468225
3.188914 -2.040223 -1.472793
11.081879 -5.043637 -2.369062
11.708976 -4.631836 -2.333211
3.361743 -1.815539 -1.441581
3.568052 -1.709220 -1.450550
2.979766 -1.678872 -1.509771
3.160751 -1.601391 -1.523738
5.801095 -2.373916 -2.277515
6.201785 -2.187892 -2.322793
3.587412 -1.286672 -1.551844
6.971415 -4.591558 -2.319022
7.450757 -4.266239 -2.300685
7.743894 -3.895638 -2.236829
8.469077 -3.601106 -2.288616
9.020260 -3.305969 -2.298746
6.864590 -3.054316 -2.292227
7.016072 -2.697191 -2.215761
8.727599 -6.462344 -1.906390
9.223211 -6.130512 -1.840419
6.477114 -4.988357 -1.876204
7.895884 -5.461230 -2.126025
9.861465 -5.725348 -1.789185
10.473836 -5.368860 -1.738532
9.270035 -5.586121 -2.303635
9.611894 -5.176984 -2.219055
9.123454 -6.163358 -1.196561
9.482005 -5.983613 -1.152332
27.264183 -13.583830 0.381212
28.795257 -13.196301 0.578734
9.967886 -5.699376 -1.113132
10.397280 -5.477284 -1.071059
9.785975 -5.765462 -1.517050
10.151610 -5.554431 -1.476597
10.910322 -5.198330 -1.032194
11.432312 -4.967367 -0.993993
10.641770 -5.251136 -1.444504
11.042487 -5.024237 -1.405468
9.356358 -6.335355 -0.410495
9.559159 -6.272023 -0.348453
9.061535 -6.315215 -0.797759
9.422716 -6.092633 -0.744527
10.314398 -5.885875 -0.296651
26.896239 -14.333870 -0.892110
9.889421 -5.845037 -0.696196
10.311901 -5.622941 -0.644289
26.999577 -13.070085 -0.693926
26.904764 -11.934086 -0.499898
26.928045 -12.321365 -1.502426
28.831388 -19.750785 0.816161
28.685094 -18.520084 1.007655
28.868150 -20.600501 -0.445024
28.817276 -18.824040 -0.218361
28.847074 -16.746726 1.191086
28.655878 -15.588557 1.366066
26.435479 -14.594657 0.197508
9.128159 -6.187771 -1.198825
9.453998 -5.986515 -1.149740
27.135525 -13.572275 0.380482
28.821400 -13.263305 0.579293
9.938154 -5.702745 -1.110445
10.374422 -5.485913 -1.069370
9.780037 -5.782755 -1.517662
10.130541 -5.563456 -1.474626
10.914380 -5.221510 -1.033625
10.605049 -5.253257 -1.440163
11.016375 -5.033040 -1.402881
9.342874 -6.347625 -0.410300
9.544071 -6.283562 -0.348186
9.048122 -6.326983 -0.797423
9.402914 -6.100698 -0.743547
10.167234 -5.820668 -0.289974
26.838257 -14.357002 -0.890724
9.891888 -5.867716 -0.697299
10.285398 -5.629266 -0.642881
27.009247 -13.127383 -0.694989
26.913083 -11.988524 -0.500660
26.950062 -12.382860 -1.505110
28.844434 -19.826710 0.817038
28.697584 -18.592308 1.008764
28.918168 -20.705422 -0.446953
28.840835 -18.904405 -0.219207
28.842873 -16.805094 1.191794
28.667877 -15.653673 1.367498
29.036939 -17.507194 -0.007856
26.489090 -14.678972 0.197431
9.093798 -6.184896 -1.195104
9.449335 -6.004467 -1.150473
27.010535 -13.562163 0.379774
28.805717 -13.310982 0.579315
9.932353 -5.720248 -1.110916
10.351562 -5.494485 -1.067681
9.750449 -5.785588 -1.514126
10.109468 -5.572430 -1.472655
10.877407 -5.224350 -1.030418
10.596537 -5.269778 -1.440183
11.006413 -5.049364 -1.402640
9.317929 -6.351842 -0.409352
9.522342 -6.290606 -0.347537
9.026620 -6.332895 -0.796192
9.383110 -6.108716 -0.742567
10.080470 -5.790665 -0.286227
11.496596 -6.103407 -0.265438
9.863718 -5.871643 -0.695617
10.288473 -5.652120 -0.643900
27.018802 -13.184743 -0.696052
26.917653 -12.041371 -0.501326
26.942995 -12.430961 -1.505959
28.847466 -19.895871 0.817706
28.706571 -18.662429 1.009779
28.895066 -20.757745 -0.447235
28.845869 -18.972749 -0.219783
27.530606 -16.090401 1.147887
28.658747 -15.707270 1.368081
28.954545 -17.519286 -0.007509
26.504124 -14.741968 0.197368
11.026562 -5.123186 -2.365981
11.591224 -4.689986 -2.316549
3.336620 -1.835566 -1.437182
3.520256 -1.719350 -1.436128
2.959138 -1.697776 -1.506454
3.146856 -1.625615 -1.523775
5.774220 -2.415785 -2.274748
6.102503 -2.205182 -2.291138
3.570862 -1.312201 -1.549514
6.956074 -4.660861 -2.326876
6.813272 -3.957925 -2.103975
7.961062 -4.087609 -2.312882
6.003223 -3.636340 -2.283148
6.358605 -3.415122 -2.274713
8.428736 -3.662150 -2.285682
9.012676 -3.383913 -2.304171
7.060623 -2.779292 -2.238187
8.647348 -6.508486 -1.899939
9.116779 -6.163102 -1.828395
7.669817 -6.039494 -2.259652
8.474877 -5.970514 -2.304096
9.766115 -5.772304 -1.779758
10.379581 -5.423422 -1.729625
9.170209 -5.623749 -2.289413
9.557764 -5.245072 -2.216242
9.060573 -6.225123 -1.194674
9.396938 -6.033432 -1.147217
26.746423 -13.586544 0.378329
28.805224 -13.476232 0.579953
9.868775 -5.745238 -1.106248
10.300411 -5.529548 -1.064760
9.702152 -5.818719 -1.510640
10.063434 -5.608965 -1.469596
10.795043 -5.246684 -1.024033
11.145234 -4.944393 -0.968291
10.532180 -5.299268 -1.434257
10.953109 -5.087281 -1.398540
9.267602 -6.381566 -0.408131
9.473687 -6.322790 -0.346554
8.979843 -6.363361 -0.794475
9.341896 -6.144831 -0.741470
10.054050 -5.838871 -0.286381
26.991944 -14.659394 -0.900996
9.816563 -5.906236 -0.693985
10.214143 -5.673697 -0.640115
27.016404 -13.342106 -0.698256
26.912591 -12.191974 -0.502878
26.942961 -12.585658 -1.509913
28.837702 -20.091169 0.819297
28.694285 -18.847992 1.011720
28.939780 -20.998562 -0.450710
28.848483 -19.170491 -0.221368
27.335316 -16.148981 1.143649
28.669174 -15.889677 1.371355
28.801158 -17.612205 -0.007191
26.494507 -14.900995 0.197169
9.026261 -6.221988 -1.190953
9.388861 -6.049144 -1.147474
26.616414 -13.572418 0.377588
28.801838 -13.529915 0.580138
9.857788 -5.759575 -1.106043
10.279272 -5.538875 -1.063284
9.674267 -5.822345 -1.507400
10.044051 -5.618740 -1.467909
10.772331 -5.256331 -1.022439
11.137206 -4.961764 -0.968311
10.518327 -5.312922 -1.433459
10.935910 -5.100075 -1.397257
9.258947 -6.397143 -0.408259
9.453595 -6.330777 -0.346000
8.963157 -6.372623 -0.793781
9.320410 -6.151577 -0.740323
9.993237 -5.823645 -0.283890
28.804238 -15.710667 -0.976251
9.779940 -5.904659 -0.691528
10.196303 -5.684668 -0.639421
27.007663 -13.390692 -0.698722
26.911323 -12.242464 -0.503402
26.944560 -12.638101 -1.511336
28.851604 -20.168603 0.820207
28.706043 -18.920559 1.012828
28.901667 -21.040327 -0.450664
28.854612 -19.240181 -0.221970
27.299374 -16.185617 1.143244
28.678796 -15.954125 1.372715
28.842891 -17.700518 -0.007766
26.498625 -14.958306 0.197108
9.030776 -6.246387 -1.193218
9.349258 -6.044075 -1.143219
26.498942 -13.564363 0.376927
28.827247 -13.597372 0.580695
9.836578 -5.767722 -1.104484
10.265090 -5.551998 -1.062663
9.669897 -5.840540 -1.508309
10.024661 -5.628468 -1.466222
10.765588 -5.274015 -1.022660
11.165347 -4.995719 -0.972126
10.511475 -5.330226 -1.433751
10.909758 -5.108541 -1.394670
9.235631 -6.402272 -0.407418
9.445039 -6.346618 -0.346117
8.954494 -6.387742 -0.793980
9.303880 -6.161618 -0.739677
9.983830 -5.839206 -0.283910
28.744269 -15.736465 -0.974869
9.785626 -5.929391 -0.692942
10.178453 -5.695598 -0.638727
27.013115 -13.446488 -0.699666
26.922670 -12.298844 -0.504260
11.094212 -5.152148 -0.503958
28.853908 -20.238045 0.820873
28.700998 -18.982131 1.013468
28.890861 -21.102190 -0.451239
28.842345 -19.297651 -0.222300
27.316486 -16.254132 1.144659
28.672608 -16.009822 1.373438
28.789325 -17.729838 -0.007633
26.447056 -14.983923 0.197069
10.972430 -5.203049 -2.363300
11.543759 -4.776507 -2.314753
3.314547 -1.857269 -1.434263
3.502129 -1.744640 -1.434723
2.936865 -1.715483 -1.502298
3.132767 -1.649729 -1.523813
5.753837 -2.460510 -2.274807
6.078519 -2.250443 -2.289129
3.354392 -1.450246 -1.529298
3.547325 -1.334760 -1.544029
6.670763 -4.541973 -2.239827
6.579230 -3.886129 -2.037915
7.883279 -4.125642 -2.299438
6.019376 -3.712688 -2.301771
6.365078 -3.484086 -2.287860
8.442352 -3.748114 -2.298340
9.006217 -3.462668 -2.310083
6.777374 -3.143030 -2.279651
7.076111 -2.850412 -2.251201
8.573086 -6.558640 -1.894946
9.068467 -6.235108 -1.828851
7.568410 -6.055706 -2.243329
8.339959 -5.973131 -2.279355
9.689068 -5.829569 -1.773949
10.276434 -5.472120 -1.719163
9.250889 -5.776473 -2.322948
9.501453 -5.311667 -2.213014
8.968279 -6.265435 -1.188299
9.314973 -6.084497 -1.142576
26.418042 -13.680489 0.376653
28.816156 -13.758877 0.581215
9.798376 -5.807528 -1.103200
10.215508 -5.587433 -1.059956
9.613069 -5.867864 -1.503341
9.968172 -5.658496 -1.461456
11.149972 -5.052210 -0.973146
10.496001 -5.385007 -1.435456
10.843793 -5.139716 -1.388745
9.186794 -6.432622 -0.406304
9.379786 -6.366930 -0.344177
8.899548 -6.411811 -0.791369
9.249305 -6.188283 -0.737245
10.028831 -5.930655 -0.287582
28.717912 -15.898773 -0.977069
9.712996 -5.947504 -0.688987
10.136944 -5.735253 -0.637655
26.980751 -13.589756 -0.700916
26.916201 -12.449882 -0.505814
11.144636 -5.240484 -0.508850
28.842056 -20.434036 0.822461
28.688461 -19.169381 1.015453
28.891408 -21.313071 -0.453766
28.842934 -19.496103 -0.223889
28.870047 -17.374480 1.200504
28.672541 -16.188020 1.376355
28.809674 -17.931078 -0.008619
26.451610 -15.152157 0.196861
8.967832 -6.286350 -1.189816
9.288646 -6.087954 -1.140221
26.438735 -13.744222 0.376878
28.821260 -13.817073 0.581515
9.760198 -5.805113 -1.099385
10.182190 -5.589719 -1.056984
9.598573 -5.879657 -1.502472
9.948757 -5.668040 -1.459769
10.738327 -5.344801 -1.023558
10.412078 -5.361316 -1.423756
10.821197 -5.149662 -1.386680
9.165099 -6.438726 -0.405571
9.359677 -6.374692 -0.343623
8.876429 -6.416142 -0.789960
9.232745 -6.198171 -0.736599
10.056755 -5.969213 -0.289445
28.727525 -15.963277 -0.978559
9.711815 -5.967958 -0.689782
10.108692 -5.740030 -0.636104
26.811448 -13.556336 -0.696000
26.914460 -12.500520 -0.506339
10.541214 -5.432434 -0.580198
11.150524 -5.264805 -0.509788
28.858413 -20.514166 0.823439
28.711097 -19.250093 1.016886
28.864044 -21.363096 -0.453977
28.845053 -19.563815 -0.224443
28.890244 -17.448856 1.202091
28.672860 -16.247791 1.377361
28.887775 -18.043429 -0.009474
26.458669 -15.211623 0.196798
8.922335 -6.274696 -1.184349
9.285419 -6.106830 -1.141192
26.482277 -13.820208 0.377249
28.808261 -13.866582 0.581581
9.760971 -5.826558 -1.100758
10.171416 -5.604600 -1.056791
9.572371 -5.884005 -1.499528
9.927626 -5.676539 -1.457798
11.694875 -5.860238 -1.133737
10.387667 -5.369128 -1.421323
10.812846 -5.166523 -1.386700
9.154725 -6.452984 -0.405592
9.351043 -6.390398 -0.343739
8.869283 -6.432329 -0.790338
9.216177 -6.208022 -0.735952
10.081176 -6.005783 -0.291140
27.672412 -15.429518 -0.936190
9.673572 -5.964892 -0.687170
10.089070 -5.749750 -0.635267
10.625237 -5.283295 -0.152198
26.923479 -12.556295 -0.507150
10.697855 -5.537309 -0.592523
11.079118 -5.251676 -0.505791
28.804796 -20.544173 0.822926
28.687190 -19.299538 1.017012
28.833392 -21.410690 -0.454114
28.850330 -19.633842 -0.225045
28.886411 -17.508719 1.202855
28.695606 -16.320522 1.379285
28.891245 -18.108995 -0.009772
26.458691 -15.267127 0.196738
3.120681 -2.109417 -1.466875
10.921416 -5.305689 -2.363442
11.494941 -4.883768 -2.314515
3.296996 -1.888861 -1.435054
3.484057 -1.777017 -1.434774
2.922124 -1.744532 -1.504022
3.115607 -1.678627 -1.523861
5.752613 -2.525230 -2.284772
6.106079 -2.327372 -2.309200
3.521265 -1.362573 -1.538553
6.532309 -4.537153 -2.206630
6.633664 -4.006051 -2.068662
7.879767 -4.219716 -2.310995
6.314028 -3.533841 -2.281724
7.973624 -3.621126 -2.174208
9.029156 -3.570367 -2.325731
6.676133 -3.171133 -2.254913
6.945660 -2.872494 -2.217162
8.540083 -6.663212 -1.902374
8.948528 -6.277368 -1.816162
7.460400 -6.084932 -2.227968
8.211501 -5.998532 -2.259156
9.587217 -5.891577 -1.765209
10.176313 -5.542245 -1.710907
9.051005 -5.768453 -2.284875
9.447792 -5.399449 -2.212730
8.903136 -6.324606 -1.186164
9.221271 -6.126861 -1.136273
26.400235 -13.936128 0.376973
28.682620 -13.972845 0.580629
9.693856 -5.848080 -1.095639
10.123412 -5.640400 -1.054297
9.540461 -5.926649 -1.499005
9.881271 -5.711921 -1.454739
10.585392 -5.350019 -1.010131
10.349306 -5.411161 -1.419485
10.743211 -5.195159 -1.380254
9.104138 -6.481633 -0.404371
9.293940 -6.415744 -0.342278
8.822221 -6.461802 -0.788621
9.174615 -6.243169 -0.734855
9.990896 -6.015038 -0.288197
10.188188 -5.666067 -0.217085
9.649647 -6.013383 -0.687705
10.037051 -5.782806 -0.633338
26.490651 -13.602361 -0.688326
26.913794 -12.706886 -0.508659
10.532218 -5.512408 -0.582253
28.794257 -20.742944 0.824580
28.687594 -19.497490 1.019413
28.697923 -21.520761 -0.453565
28.845544 -19.830779 -0.226589
28.860627 -17.680197 1.204648
28.595147 -16.442317 1.378172
28.878957 -18.292134 -0.010534
26.459835 -15.434998 0.196528
8.864140 -6.317323 -1.181694
9.208101 -6.138973 -1.135818
26.423873 -14.002059 0.377219
28.416478 -13.897415 0.577408
9.679351 -5.860011 -1.094983
10.090119 -5.642352 -1.051325
9.502603 -5.923316 -1.493987
9.856709 -5.718221 -1.452199
10.680683 -5.421053 -1.022056
10.352734 -5.433893 -1.421413
10.736563 -5.212780 -1.380534
9.090477 -6.493431 -0.404176
9.286866 -6.432508 -0.342490
8.802276 -6.468314 -0.787570
9.148189 -6.246056 -0.733208
9.969311 -6.023202 -0.287631
10.159928 -5.671042 -0.216316
9.611447 -6.010040 -0.685094
10.029423 -5.799449 -0.633501
26.621382 -13.723438 -0.693518
26.929616 -12.766294 -0.509663
10.516281 -5.525008 -0.581750
28.793694 -20.811599 0.825210
28.697890 -19.570696 1.020518
28.725947 -21.612840 -0.455059
28.853530 -19.903315 -0.227242
28.835960 -17.727506 1.204708
28.546566 -16.474040 1.377199
28.873492 -18.352486 -0.010770
26.462861 -15.492688 0.196466
8.860348 -6.335812 -1.182712
9.180152 -6.140988 -1.133226
26.420958 -14.053867 0.377295
28.247413 -13.869123 0.575446
9.651361 -5.863470 -1.092521
10.072369 -5.653118 -1.050277
9.499686 -5.942392 -1.495193
9.837255 -5.727493 -1.450512
10.583878 -5.391332 -1.011987
10.328276 -5.441489 -1.418980
10.724563 -5.227737 -1.380033
9.076801 -6.505202 -0.403982
9.269979 -6.442341 -0.342128
8.790267 -6.480797 -0.787412
9.139750 -6.261428 -0.733395
9.947726 -6.031313 -0.287066
10.206267 -5.718639 -0.218634
9.593373 -6.019585 -0.684340
9.994309 -5.799810 -0.631378
26.626094 -13.779046 -0.694464
26.941712 -12.824052 -0.510572
10.489815 -5.531842 -0.580461
28.813967 -20.895653 0.826289
28.708026 -19.643984 1.021622
28.733068 -21.689313 -0.456077
28.856435 -19.972496 -0.227821
28.985958 -17.883704 1.210809
28.565282 -16.544938 1.378981
28.891446 -18.428029 -0.011184
26.489863 -15.564694 0.196394
3.101286 -2.132223 -1.466160
10.864207 -5.383616 -2.360364
11.444221 -4.968573 -2.312340
3.271434 -1.908140 -1.430655
3.468760 -1.803777 -1.434815
2.913129 -1.770926 -1.507415
3.101093 -1.702494 -1.523899
5.751603 -2.579503 -2.293308
6.051642 -2.360438 -2.295470
3.487289 -1.380166 -1.528334
6.461005 -4.562957 -2.194501
7.255452 -4.478239 -2.285989
7.809777 -4.261074 -2.300153
7.865372 -3.644978 -2.151654
8.970957 -3.628646 -2.318049
6.666745 -3.231612 -2.261040
7.021338 -2.970368 -2.250773
8.341425 -6.611514 -1.867857
7.371217 -6.108700 -2.215397
8.075916 -5.996418 -2.233961
9.502927 -5.942638 -1.758084
10.065920 -5.584431 -1.699200
9.002549 -5.837735 -2.284547
9.405527 -5.473946 -2.213252
8.800979 -6.355921 -1.178291
9.155270 -6.187295 -1.134008
26.423931 -14.216264 0.377572
27.975394 -13.898789 0.572585
9.616161 -5.904369 -1.091688
10.027669 -5.690282 -1.048211
9.437688 -5.965228 -1.489335
9.785656 -5.759241 -1.446599
10.459265 -5.388495 -1.000758
10.251441 -5.462116 -1.411146
10.654812 -5.255607 -1.373586
9.035689 -6.540486 -0.403406
9.232274 -6.481043 -0.341816
8.739907 -6.507350 -0.785337
9.089855 -6.290379 -0.731464
9.893106 -6.061861 -0.285881
28.834040 -16.562169 -0.993112
9.537447 -6.047013 -0.681933
9.949010 -5.836330 -0.630020
26.581304 -13.915367 -0.695357
26.916188 -12.968124 -0.511700
10.434919 -5.565544 -0.578437
28.820566 -21.109407 0.828355
28.670191 -19.817638 1.022995
28.713797 -21.888835 -0.458243
28.813578 -20.144841 -0.228825
28.861702 -17.995367 1.209256
28.577491 -16.732960 1.382528
28.889010 -18.619382 -0.012038
27.414201 -16.286969 0.195804
8.805050 -6.380283 -1.180557
9.122422 -6.185725 -1.130702
26.413594 -14.264355 0.377602
27.835369 -13.883266 0.570998
9.584819 -5.905481 -1.088775
10.008155 -5.699895 -1.046949
9.444609 -5.990738 -1.492319
9.776346 -5.774473 -1.446619
10.445274 -5.401972 -1.000173
10.240864 -5.477123 -1.410893
10.637449 -5.267723 -1.372303
9.007553 -6.541395 -0.402242
9.207224 -6.484925 -0.340975
8.735741 -6.525794 -0.786072
9.078085 -6.303368 -0.731318
9.871506 -6.069778 -0.285315
28.754151 -16.576206 -0.990941
9.534356 -6.066229 -0.682573
9.924193 -5.842570 -0.628755
26.552098 -13.953227 -0.695166
26.927868 -13.026064 -0.512609
10.411942 -5.574072 -0.577410
28.801570 -21.165257 0.828603
28.669922 -19.884275 1.023819
28.726619 -21.970433 -0.459409
28.871505 -20.253382 -0.230245
28.878768 -18.069407 1.210781
28.697113 -16.864261 1.388476
28.889608 -18.684308 -0.012326
27.316321 -16.286638 0.195780
8.762247 -6.391102 -1.177113
9.108966 -6.218760 -1.131702
26.408440 -14.369351 0.377735
27.694806 -13.921682 0.569610
9.569071 -5.937574 -1.089277
9.984556 -5.728160 -1.046358
9.392204 -5.998494 -1.486441
9.744124 -5.796802 -1.444393
10.431259 -5.436517 -1.000627
10.200606 -5.496604 -1.407400
10.597395 -5.289255 -1.368965
8.991252 -6.573132 -0.402616
9.186310 -6.513689 -0.341025
8.705246 -6.545763 -0.785049
9.041510 -6.320160 -0.729700
9.831679 -6.087734 -0.284361
28.734208 -16.685516 -0.992448
9.496451 -6.083938 -0.680920
9.901880 -5.871523 -0.628520
26.974462 -14.286889 -0.711153
26.904251 -13.119310 -0.513213
10.388654 -5.603712 -0.577068
28.772898 -21.284225 0.829277
28.662439 -20.013212 1.025250
28.690119 -22.086207 -0.460338
28.940915 -20.438844 -0.232423
28.895566 -18.207164 1.213214
28.677829 -16.974694 1.389745
28.878724 -18.806729 -0.012843
27.300455 -16.394001 0.195629
10.834234 -5.475498 -2.363668
11.875449 -5.272257 -2.413100
3.255109 -1.933225 -1.430696
3.355888 -1.775297 -1.391464
2.879900 -1.780912 -1.497389
3.098899 -1.733745 -1.530516
5.760166 -2.638864 -2.306084
6.003979 -2.395711 -2.284499
3.473423 -1.406220 -1.527583
7.283299 -4.576705 -2.307585
7.838522 -4.358163 -2.320016
3.825539 -2.429260 -1.445341
6.253627 -3.630496 -2.281245
7.817917 -3.697489 -2.146705
8.967691 -3.709895 -2.325421
6.639912 -3.283324 -2.261111
7.040119 -3.044497 -2.265556
8.280416 -6.670011 -1.866144
9.041166 -6.560062 -1.859032
7.305607 -6.151842 -2.210335
7.982548 -6.024648 -2.220962
9.416770 -5.991668 -1.750630
9.987994 -5.644009 -1.693402
8.909974 -5.876967 -2.272496
9.344262 -5.536972 -2.209192
8.747956 -6.423118 -1.178152
9.059609 -6.226567 -1.127467
26.446586 -14.498608 0.378178
27.363726 -13.861842 0.565762
9.513115 -5.943666 -1.084353
9.940323 -5.744073 -1.043193
9.376107 -6.029891 -1.487074
9.703410 -5.813688 -1.440735
10.368159 -5.444317 -0.995421
10.167233 -5.519635 -1.404986
10.560831 -5.312274 -1.366137
8.952538 -6.587828 -0.401473
9.142679 -6.525808 -0.339726
8.673133 -6.564250 -0.783840
9.016249 -6.344786 -0.729241
9.790148 -6.104290 -0.283313
25.493686 -14.897351 -0.859604
9.471807 -6.110169 -0.680497
9.852226 -5.883646 -0.625989
26.895518 -14.353263 -0.710116
26.925078 -13.234635 -0.514984
10.344392 -5.621409 -0.575145
28.799704 -21.445140 0.831190
28.693589 -20.169891 1.027828
28.713033 -22.248638 -0.462635
28.871160 -20.525941 -0.232475
28.913448 -18.346168 1.215734
28.695815 -17.107694 1.392599
28.879010 -18.936879 -0.013420
28.981834 -17.535751 0.194793
8.701232 -6.409148 -1.172435
9.043068 -6.236089 -1.126537
26.446234 -14.552671 0.378275
27.250919 -13.858128 0.564525
9.505185 -5.959549 -1.084599
9.917350 -5.751440 -1.041503
9.341668 -6.028048 -1.482649
9.683893 -5.822576 -1.439048
10.350607 -5.455706 -0.994432
10.146214 -5.528663 -1.403098
10.538130 -5.321442 -1.364071
8.932383 -6.594507 -0.400848
9.127324 -6.536499 -0.339460
8.650000 -6.567926 -0.782431
8.993079 -6.349497 -0.727927
9.763501 -6.108705 -0.282496
25.435587 -14.916911 -0.858217
9.442039 -6.111632 -0.678659
9.842721 -5.898984 -0.626009
28.782708 -15.431637 -0.775233
26.925476 -13.287493 -0.515607
10.337037 -5.638501 -0.575296
28.812035 -21.525139 0.832128
28.664872 -20.217138 1.027859
28.699819 -22.310868 -0.463215
28.901989 -20.616621 -0.233501
28.931415 -18.421729 1.217316
27.268295 -16.308734 1.334786
28.907272 -19.020841 -0.013925
28.902806 -17.549838 0.194757
8.702641 -6.453172 -1.175977
9.014829 -6.258600 -1.125398
26.415581 -14.644379 0.378247
27.084177 -13.880174 0.562790
9.475924 -5.982745 -1.083295
9.886780 -5.775304 -1.040057
9.325472 -6.059434 -1.483291
9.653267 -5.845549 -1.437107
10.320709 -5.481363 -0.993070
10.116232 -5.553536 -1.401240
10.510309 -5.348894 -1.362558
8.920646 -6.629682 -0.401544
9.090146 -6.553187 -0.338552
8.622561 -6.590013 -0.781765
8.964519 -6.371741 -0.727143
9.740414 -6.137043 -0.282379
27.404099 -16.197341 -0.942685
9.415674 -6.136689 -0.678090
9.804961 -5.918235 -0.624488
28.768664 -15.541044 -0.776569
26.906326 -13.383562 -0.516355
10.291004 -5.655060 -0.573252
28.777223 -21.640814 0.832696
28.652779 -20.344170 1.029195
28.687163 -22.446634 -0.464734
28.883585 -20.741161 -0.234374
28.891357 -18.524371 1.217812
27.180545 -16.372431 1.333166
28.890089 -19.140359 -0.014407
28.809560 -17.617366 0.194627
2.860005 -2.256675 -1.460751
10.780988 -5.555273 -2.361787
11.953519 -5.421025 -2.439143
3.238583 -1.958175 -1.430738
3.340600 -1.801045 -1.391505
2.876512 -1.811203 -1.504137
3.079275 -1.754624 -1.528088
5.754751 -2.691831 -2.313210
5.990630 -2.445199 -2.287317
3.450977 -1.428371 -1.522887
7.269934 -4.649216 -2.315739
7.757741 -4.392803 -2.306051
6.226912 -3.680927 -2.282564
7.716577 -3.722381 -2.126162
9.063244 -3.834836 -2.359989
6.642957 -3.350938 -2.272084
6.992164 -3.088763 -2.257977
8.292720 -6.790006 -1.882295
8.753461 -6.454043 -1.807479
7.257265 -6.209765 -2.210905
7.886162 -6.049387 -2.207059
9.327141 -6.037527 -1.742518
9.891012 -5.691697 -1.684182
8.798068 -5.901780 -2.255234
9.304225 -5.612725 -2.210548
8.653492 -6.458455 -1.171527
8.991383 -6.284316 -1.124964
26.443787 -14.769388 0.378632
26.874987 -13.879007 0.560529
9.448267 -6.006770 -1.082207
9.847631 -5.793777 -1.037533
9.271445 -6.065211 -1.477107
9.617546 -5.865113 -1.434302
10.278557 -5.500012 -0.990285
10.067265 -5.567328 -1.396373
10.478903 -5.374247 -1.360512
8.867610 -6.633057 -0.399431
9.060977 -6.575509 -0.338115
8.591937 -6.609386 -0.780734
8.932680 -6.391385 -0.726016
9.692147 -6.148764 -0.280996
27.282286 -16.240959 -0.939846
9.379325 -6.154804 -0.676583
9.772257 -5.940328 -0.623386
28.776968 -15.662932 -0.778652
26.934994 -13.503894 -0.518367
10.253625 -5.676203 -0.571852
28.819830 -21.815825 0.834987
28.683980 -20.502723 1.031818
28.706802 -22.608534 -0.466995
28.875986 -20.873902 -0.235390
28.927951 -18.677054 1.221035
27.116522 -16.450210 1.332565
28.908916 -19.284417 -0.015138
28.796044 -17.733904 0.194494
8.634229 -6.486690 -1.171826
8.954959 -6.300825 -1.122638
26.414133 -14.862176 0.378615
26.713893 -13.901892 0.558866
9.403971 -6.019873 -1.078872
9.816973 -5.817347 -1.036087
9.263299 -6.101951 -1.479232
9.583478 -5.885700 -1.431791
10.253775 -5.528271 -0.989528
10.050942 -5.599784 -1.396696
10.519313 -5.437602 -1.369167
8.843071 -6.658308 -0.399266
9.023750 -6.591888 -0.337207
8.562840 -6.630010 -0.779890
8.905632 -6.414568 -0.725399
9.662269 -6.172463 -0.280544
28.811353 -17.281450 -1.006378
9.352851 -6.179622 -0.676013
9.736131 -5.960297 -0.622007
28.767320 -15.775449 -0.780169
26.913308 -13.599229 -0.519069
10.228326 -5.704275 -0.571380
28.776016 -21.925641 0.835380
28.628642 -20.599658 1.031942
28.671051 -22.727206 -0.468002
28.882378 -21.017553 -0.236659
28.887013 -18.779800 1.221529
27.108463 -16.562448 1.334263
28.855960 -19.380639 -0.015354
28.761738 -17.837940 0.194338
8.598686 -6.480655 -1.167854
8.941575 -6.312432 -1.122183
26.435639 -14.929342 0.378857
26.598001 -13.894296 0.557584
9.395908 -6.035604 -1.079118
9.793974 -5.824370 -1.034398
9.220755 -6.094093 -1.473324
9.562239 -5.893234 -1.429820
10.239617 -5.541327 -0.988943
10.021293 -5.603542 -1.393445
10.393160 -5.391692 -1.351718
8.840235 -6.678185 -0.399826
9.017934 -6.609509 -0.337516
8.550605 -6.642078 -0.779732
8.884058 -6.420145 -0.724252
9.648974 -6.185301 -0.280398
28.804420 -17.339003 -1.007297
9.344526 -6.195300 -0.676189
9.726504 -5.975453 -0.622028
28.773683 -15.838007 -0.781301
10.193182 -5.705227 -0.569436
28.788788 -22.007330 0.836351
28.652612 -20.685611 1.033508
28.688094 -22.814629 -0.469318
28.894198 -21.095923 -0.237416
28.877251 -18.838237 1.222172
28.701007 -17.604906 1.401400
28.871519 -19.457328 -0.015772
28.791042 -17.919093 0.194255
2.845122 -2.282146 -1.463114
10.739208 -5.641108 -2.362700
11.957219 -5.536897 -2.449558
3.214152 -1.977811 -1.427080
3.394251 -1.867269 -1.422646
2.853536 -1.827952 -1.499982
2.986714 -1.730110 -1.487016
6.002653 -2.505954 -2.300480
3.433398 -1.452577 -1.520558
6.572659 -4.883370 -2.276346
7.193643 -4.679719 -2.302919
7.743336 -4.465855 -2.312906
6.191713 -3.726160 -2.280769
7.802814 -3.842702 -2.160452
8.898721 -3.846034 -2.323656
7.002772 -3.160093 -2.270408
8.190045 -6.813493 -1.870741
8.734114 -6.547160 -1.814873
7.670399 -6.681129 -2.361199
7.824945 -6.100893 -2.203548
9.245528 -6.087904 -1.736051
9.810844 -5.748375 -1.678073
8.689511 -5.927464 -2.238839
9.250311 -5.679889 -2.208572
8.604370 -6.528128 -1.172137
8.898679 -6.323916 -1.118898
26.443549 -15.044024 0.379115
26.438903 -13.916579 0.555975
9.349939 -6.047190 -1.075548
9.768337 -5.850696 -1.033584
9.201058 -6.122765 -1.473365
9.536483 -5.918742 -1.428723
10.202583 -5.562463 -0.986763
10.016834 -5.642704 -1.395667
10.412383 -5.443694 -1.357234
8.788811 -6.682293 -0.397821
8.977455 -6.623145 -0.336408
8.515218 -6.657411 -0.778165
8.853733 -6.440639 -0.723293
9.602366 -6.197621 -0.279098
10.128167 -6.059265 -0.222927
9.301508 -6.208547 -0.674062
9.683565 -5.990806 -0.620068
28.772083 -15.955475 -0.783088
10.181603 -5.740977 -0.570001
10.629582 -5.514968 -0.490242
28.802714 -22.162409 0.838051
28.690266 -20.850815 1.036360
28.709118 -22.979757 -0.471658
28.896406 -21.237477 -0.238608
28.900704 -18.983890 1.224981
28.707834 -17.733822 1.403896
28.895525 -19.606474 -0.016557
28.872775 -18.096749 0.194076
8.552108 -6.530477 -1.167196
8.883079 -6.355219 -1.119660
26.426792 -15.144974 0.379187
26.412182 -14.008892 0.556080
9.340293 -6.083048 -1.076953
9.737555 -5.873923 -1.032138
9.169881 -6.143642 -1.471339
9.505657 -5.941085 -1.426781
10.175904 -5.589446 -0.985805
9.959239 -5.650971 -1.389446
10.344107 -5.448964 -1.349724
8.775122 -6.715915 -0.398410
8.952917 -6.648776 -0.336267
8.481371 -6.673974 -0.776784
8.826565 -6.463523 -0.722675
9.582349 -6.227629 -0.279150
10.207331 -6.151648 -0.227148
9.279818 -6.236473 -0.673958
9.660830 -6.018927 -0.619833
10.077993 -5.509881 -0.141568
26.486850 -13.644613 -0.510765
10.180233 -5.782899 -0.571362
10.645159 -5.566095 -0.492476
28.773415 -22.284678 0.838788
28.648270 -20.958510 1.036901
28.679733 -23.105019 -0.472850
28.806573 -21.311324 -0.238421
28.905255 -19.117782 1.227114
28.697211 -17.852463 1.405654
28.890904 -19.736780 -0.017157
28.843970 -18.205488 0.193914
8.568080 -6.564653 -1.171459
8.861613 -6.360825 -1.118018
26.451105 -15.214526 0.379450
26.433930 -14.073907 0.556611
9.309046 -6.083149 -1.074039
9.711149 -5.878624 -1.030021
9.146958 -6.148896 -1.468988
9.481055 -5.946270 -1.424240
10.135736 -5.587566 -0.982192
9.936434 -5.658441 -1.387286
10.319585 -5.456583 -1.347397
8.745498 -6.714712 -0.397138
8.929478 -6.653040 -0.335521
8.472170 -6.688412 -0.776984
8.800193 -6.465305 -0.721028
9.552396 -6.229173 -0.278165
10.076637 -6.093022 -0.222066
9.246828 -6.234987 -0.671810
9.629249 -6.020014 -0.617996
10.215138 -5.608423 -0.146620
26.461581 -13.684233 -0.510718
10.134763 -5.777500 -0.568632
10.579853 -5.552463 -0.488822
28.786906 -22.367968 0.839792
28.652047 -21.030686 1.037907
28.703598 -23.199187 -0.474352
28.824079 -21.394714 -0.239278
28.891535 -19.174178 1.227638
28.702717 -17.918680 1.407007
28.890851 -19.803643 -0.017462
28.869038 -18.285070 0.193831
10.671008 -5.712416 -2.357630
11.871440 -5.610453 -2.440910
3.194202 -2.000344 -1.425642
3.375029 -1.891406 -1.421241
2.831941 -1.845519 -1.496666
2.971783 -1.752962 -1.487055
3.670315 -1.721479 -1.445836
5.978103 -2.550935 -2.299163
3.410653 -1.474260 -1.515863
7.160165 -4.738802 -2.304621
7.734866 -4.542951 -2.321843
6.202751 -3.800551 -2.297035
8.101751 -4.077276 -2.257632
8.918172 -3.938604 -2.337830
6.583656 -3.451919 -2.271019
6.942000 -3.197932 -2.258712
8.123136 -6.866749 -1.867937
8.592465 -6.546178 -1.795218
7.692626 -6.809971 -2.386184
7.774006 -6.160392 -2.203200
9.147457 -6.126175 -1.726294
9.718580 -5.796958 -1.669786
8.587439 -5.956361 -2.224181
9.215691 -5.759193 -2.211597
8.481949 -6.561440 -1.162795
8.819604 -6.393986 -1.116425
26.436954 -15.373262 0.379648
26.417515 -14.225772 0.557107
9.268019 -6.118859 -1.072530
9.667405 -5.914575 -1.028168
9.096054 -6.176924 -1.465205
9.432226 -5.977711 -1.420896
10.113711 -5.637984 -0.982869
10.590528 -5.432046 -0.942331
9.893574 -5.695824 -1.384903
10.272125 -5.493467 -1.344340
8.713004 -6.755588 -0.397210
8.876658 -6.678988 -0.334347
8.425936 -6.716633 -0.775446
8.760924 -6.500429 -0.720264
9.503993 -6.261517 -0.277315
10.192912 -6.231136 -0.228322
9.206795 -6.271358 -0.670952
9.586606 -6.056414 -0.616924
26.551634 -13.890685 -0.515113
10.058644 -5.796368 -0.565036
10.479114 -5.561990 -0.484070
28.744705 -22.554018 0.840978
28.635208 -21.227394 1.040103
28.682743 -23.407642 -0.476718
28.822768 -21.605918 -0.241062
28.892798 -19.372648 1.230704
28.652625 -18.076021 1.408282
28.876759 -19.995477 -0.018304
28.857437 -18.469426 0.193587
8.488435 -6.588243 -1.165561
8.793343 -6.395873 -1.114069
26.498614 -15.465510 0.380157
26.424726 -14.283411 0.557451
9.249936 -6.127676 -1.071422
9.651109 -5.925397 -1.027334
9.082848 -6.188799 -1.464633
9.420910 -5.991310 -1.420632
10.066687 -5.631828 -0.978449
10.595820 -5.455969 -0.943871
9.863943 -5.699044 -1.381651
10.249325 -5.501828 -1.342274
8.689649 -6.759158 -0.396369
8.861151 -6.689140 -0.334080
8.416659 -6.730994 -0.775646
8.742508 -6.508030 -0.719451
9.487285 -6.271810 -0.277000
10.226909 -6.274577 -0.230213
9.195048 -6.284534 -0.670818
9.565103 -6.063749 -0.615944
26.449844 -15.036748 -0.709416
26.577223 -13.957535 -0.516457
10.037277 -5.804871 -0.564140
10.477124 -5.582135 -0.484550
28.777893 -22.653731 0.842430
28.647996 -21.306967 1.041387
28.679602 -23.480554 -0.477596
28.818835 -21.673971 -0.241598
28.873646 -19.425759 1.231052
28.634047 -18.127340 1.408646
28.900725 -20.079739 -0.018802
28.846602 -18.526563 0.193518
8.448394 -6.577866 -1.160841
8.787810 -6.413102 -1.114803
27.471866 -16.098503 0.386615
26.431820 -14.341109 0.557796
9.233487 -6.137574 -1.070540
9.628070 -5.931947 -1.025644
9.056690 -6.191537 -1.461689
9.394645 -5.995163 -1.417807
10.052411 -5.644508 -0.977864
10.520104 -5.437105 -0.936674
9.846225 -5.709310 -1.380308
10.221313 -5.507261 -1.339426
8.672535 -6.767670 -0.395959
8.859869 -6.710241 -0.334677
8.405821 -6.744075 -0.775667
8.728848 -6.519210 -0.719139
9.463968 -6.277558 -0.276351
10.259102 -6.317078 -0.232033
9.168623 -6.287337 -0.669290
9.556985 -6.079722 -0.616108
28.811336 -16.456041 -0.792041
26.581484 -14.013232 -0.517226
10.021045 -5.816399 -0.563637
10.441812 -5.584085 -0.482848
28.796759 -22.742393 0.843571
28.657406 -21.384232 1.042578
28.687084 -23.562441 -0.478731
28.856178 -21.773497 -0.242779
28.885785 -19.500251 1.232513
28.699567 -18.232496 1.412538
28.873791 -20.128449 -0.018903
28.864181 -18.602217 0.193436
10.624542 -5.795506 -2.357746
11.839826 -5.709922 -2.444082
3.174088 -2.022689 -1.424204
3.355629 -1.915362 -1.419837
2.824902 -1.873569 -1.501738
3.011873 -1.811190 -1.516695
5.970279 -2.603501 -2.304742
3.387771 -1.495680 -1.511167
7.055166 -4.747958 -2.282120
6.131497 -3.822870 -2.281540
8.243921 -4.234450 -2.309540
8.838207 -3.985872 -2.324808
6.903385 -3.245928 -2.254666
8.017555 -6.885547 -1.855653
8.488482 -6.572660 -1.783886
8.243555 -6.647293 -2.359199
9.070341 -6.178021 -1.720813
9.639583 -5.852784 -1.663988
8.488602 -5.986326 -2.210391
9.170544 -5.831915 -2.212122
8.438143 -6.634804 -1.164405
8.739267 -6.441053 -1.112259
27.291995 -16.165871 0.385751
26.424421 -14.499168 0.558429
9.184093 -6.167180 -1.067902
9.584148 -5.967383 -1.023791
9.020206 -6.229289 -1.460573
9.348993 -6.028213 -1.415032
9.999195 -5.676452 -0.974907
10.423385 -5.448788 -0.929149
9.798111 -5.743066 -1.377107
10.175435 -5.544479 -1.336629
8.627374 -6.798141 -0.395169
8.810056 -6.738150 -0.333695
8.357881 -6.770596 -0.773950
8.689370 -6.553931 -0.718375
9.415433 -6.309337 -0.275500
9.125148 -6.320943 -0.668122
9.500783 -6.106918 -0.613892
28.713707 -16.580300 -0.791581
26.502060 -14.131466 -0.517068
9.979110 -5.855023 -0.562661
10.395406 -5.622335 -0.481656
28.775764 -22.947782 0.845272
28.651154 -21.591273 1.045144
28.667001 -23.774077 -0.481173
28.827082 -21.966170 -0.244170
28.885012 -19.699413 1.235576
28.701532 -18.424811 1.416068
28.860982 -20.323142 -0.019774
28.854042 -18.789330 0.193189
8.390472 -6.617912 -1.158436
8.716196 -6.445079 -1.110379
27.283447 -16.218911 0.385808
26.425828 -14.554138 0.558703
9.175772 -6.182600 -1.068149
9.562772 -5.974812 -1.022315
9.000495 -6.236423 -1.458815
9.330997 -6.037305 -1.413630
9.981437 -5.686976 -0.973918
10.435608 -5.476327 -0.931449
9.780355 -5.753176 -1.375764
10.150883 -5.551612 -1.334302
8.605581 -6.802738 -0.394436
8.778741 -6.735861 -0.332469
8.337808 -6.775921 -0.772898
8.669339 -6.560140 -0.717395
9.398684 -6.319440 -0.275186
28.845843 -18.242771 -1.026682
9.101981 -6.325854 -0.666903
9.494256 -6.123898 -0.614199
26.533159 -15.362809 -0.716775
26.819109 -14.356326 -0.526375
9.954296 -5.861235 -0.561502
10.368849 -5.628837 -0.480528
28.789223 -23.033016 0.846308
28.645587 -21.657922 1.045915
28.689109 -23.869073 -0.482678
28.847767 -22.053970 -0.245104
28.886666 -19.767374 1.236684
28.700801 -18.488249 1.417207
28.897151 -20.417103 -0.020375
28.857647 -18.856497 0.193112
8.401357 -6.648489 -1.161951
8.705806 -6.458631 -1.110400
27.281648 -16.276099 0.385910
26.442847 -14.617915 0.559186
9.149487 -6.185516 -1.065912
9.541397 -5.982190 -1.020839
8.971136 -6.236601 -1.455278
9.309696 -6.044167 -1.411658
9.963670 -5.697457 -0.972929
10.388181 -5.471800 -0.927290
9.762591 -5.763244 -1.374421
10.141895 -5.567419 -1.334323
8.588437 -6.811070 -0.394026
8.771039 -6.751977 -0.332683
8.319266 -6.782481 -0.772025
8.646157 -6.563864 -0.716081
9.377004 -6.326085 -0.274620
28.838783 -18.301933 -1.027677
9.090158 -6.338850 -0.666769
9.462731 -6.124381 -0.612361
26.519072 -15.410430 -0.717187
26.848997 -14.426904 -0.527865
9.934599 -5.870500 -0.560737
10.354507 -5.642073 -0.480204
28.785385 -23.104513 0.846964
28.665317 -21.744011 1.047429
28.697218 -23.952612 -0.483852
28.846078 -22.124789 -0.245692
28.901321 -19.844499 1.238260
28.708318 -18.557181 1.418698
28.900563 -20.487955 -0.020720
28.879473 -18.935842 0.193026
2.958188 -2.247017 -1.449769
10.553620 -5.864587 -2.352277
11.770537 -5.790735 -2.439249
3.146230 -2.039489 -1.419066
3.329711 -1.935219 -1.415540
2.798634 -1.887573 -1.495906
3.000873 -1.837233 -1.519202
5.878641 -2.617188 -2.276532
3.209030 -1.638508 -1.511891
3.369708 -1.519270 -1.508839
6.694608 -4.573762 -2.171948
7.599435 -4.624902 -2.302765
6.103193 -3.872442 -2.282861
8.251606 -4.321726 -2.322208
8.766805 -4.036307 -2.314214
6.628622 -3.612564 -2.308721
6.914046 -3.318260 -2.267688
7.928279 -6.917569 -1.847379
8.430714 -6.634892 -1.782958
8.219733 -6.736254 -2.368349
8.973699 -6.215300 -1.711385
9.550279 -5.901417 -1.656323
8.405515 -6.026730 -2.200943
9.072592 -5.869787 -2.199314
8.336976 -6.661281 -1.156781
