# .PCD v.7 - Point Cloud Data file format
VERSION .7
FIELDS x y z
SIZE 4 4 4
TYPE F F F
COUNT 1 1 1
WIDTH 1712
HEIGHT 1
POINTS 1712
DATA ascii
0.443435 8.695928 22.905236
0.278760 7.365752 17.330268
3.015967 6.493249 20.906230
3.083388 7.692718 22.222589
0.169730 7.817548 16.446200
0.064032 8.262048 16.071512
2.948517 8.614444 21.944972
2.891348 9.704655 22.319061
2.991648 6.541448 17.087193
2.963931 7.314865 17.391954
2.320212 8.838124 18.256162
2.739483 11.980257 22.794396
2.823426 7.934795 16.919084
2.631841 8.226866 16.131135
1.503559 6.735515 21.780667
1.427811 7.441701 22.769204
2.317200 6.443570 21.891743
2.203919 7.321294 21.891025
1.319211 9.034953 22.965726
0.934542 7.496793 17.010798
2.072929 8.165107 21.675220
1.991016 9.228243 22.052852
0.820577 8.102404 16.580790
0.729124 8.906052 16.871998
1.978493 10.822678 23.398613
1.412070 9.065124 17.690153
-0.111564 6.793307 21.675728
-0.270712 7.749912 22.692242
0.695724 6.410172 21.911281
0.566018 7.365681 21.912985
-0.431217 9.085577 23.014167
-0.392299 7.506913 17.429427
0.443009 8.647278 22.882545
0.278504 7.317044 17.287456
3.017947 6.465034 20.931080
3.083079 7.657397 22.232195
0.169668 7.796038 16.467003
0.059374 8.485786 16.590048
2.932214 8.531623 21.827610
2.885343 9.649110 22.284190
2.991298 6.514154 17.095019
2.970579 7.304632 17.445124
2.751866 10.532648 22.009047
2.734908 11.923885 22.771829
2.804117 7.852991 16.806064
2.634214 8.209556 16.159506
1.501443 6.691536 21.756119
1.426518 7.399054 22.757398
2.323040 6.426247 21.962726
2.201606 7.279294 21.877237
1.318607 8.994888 22.968091
0.939049 7.515085 17.128885
2.070289 8.120559 21.657407
1.991856 9.198268 22.077858
0.819872 8.068179 16.574784
0.723058 8.780435 16.689187
1.978987 10.789368 23.422312
1.418116 9.081596 17.793371
-0.111316 6.753293 21.664682
-0.270052 7.703377 22.669573
0.697319 6.396470 21.995987
0.565644 7.325408 21.904898
-0.430288 9.036285 22.992271
-0.391639 7.471430 17.420267
0.435387 8.344145 22.150071
0.278322 7.275946 17.263090
2.867651 1.765626 5.967374
2.889276 2.145070 6.082042
2.924494 5.857734 11.527729
2.812735 6.446839 11.265514
2.856987 2.575711 6.027239
2.867670 2.969985 6.080856
2.878020 2.176991 5.286348
2.878863 2.484481 5.315982
2.881118 3.465502 6.082319
2.911751 3.898694 6.152761
2.895552 2.928962 5.311776
2.913753 3.296995 5.331340
2.867063 2.356719 8.343330
2.850084 2.855153 8.442397
2.849829 1.867587 6.965402
2.850014 2.277647 7.074628
2.848593 3.469101 8.548423
2.839791 4.033340 8.632484
2.832972 2.782325 7.090546
2.847127 3.242857 7.202942
2.855937 4.754532 8.737582
2.901422 5.462655 8.974196
2.872470 3.844046 7.282932
2.896584 4.369922 7.384379
2.988772 3.715609 13.983104
2.979398 4.623774 14.449794
2.903612 2.635443 10.494696
2.865009 3.262431 10.612272
2.969828 5.724947 14.885268
2.980849 6.888730 15.472197
2.925261 4.156463 11.091732
2.924012 4.869450 11.359640
3.015483 6.361983 20.942395
3.078284 7.541470 22.230404
0.169488 7.734357 16.536510
0.061896 8.269190 16.342029
2.920929 8.396336 21.776321
2.878595 9.521802 22.272536
2.988758 6.428814 17.108862
2.980942 7.248990 17.543886
2.745485 10.404644 22.002378
2.738729 11.834877 22.861583
2.799272 7.760745 16.810300
2.646434 8.173431 16.278407
1.497404 6.570956 21.720337
1.421756 7.266091 22.704268
2.334128 6.354799 22.108314
2.194523 7.152953 21.833451
1.307444 8.802742 22.779776
0.946944 7.512743 17.350716
2.074006 8.034819 21.738818
1.987380 9.073396 22.065424
0.839237 8.233347 17.141634
0.726427 8.758632 16.841247
1.981740 10.696243 23.509520
1.421552 9.023514 17.886278
-0.110515 6.632890 21.629145
-0.268485 7.570889 22.621930
0.701449 6.345480 22.219211
0.564429 7.202340 21.872520
-0.428355 8.900645 22.957819
-0.596868 9.787859 23.390187
0.442366 8.489475 22.892593
0.301298 9.538391 23.207940
3.018739 6.336314 20.976609
3.050187 7.436803 22.024354
0.169147 7.761974 16.668791
0.051899 8.772335 17.447255
2.910428 8.331649 21.704957
2.872150 9.465133 22.233571
2.989921 6.404770 17.125835
2.977986 7.214423 17.536262
2.795690 10.568146 22.454765
2.150931 9.135358 17.564759
2.806492 7.755145 16.869096
2.670206 8.224368 16.449707
1.495516 6.528375 21.699312
1.419240 7.216741 22.669202
2.340705 6.338806 22.186957
2.191691 7.109429 21.813639
1.242513 8.272046 21.444490
0.958508 7.598289 17.635429
2.074429 8.002856 21.756488
1.989563 9.049911 22.106914
0.847792 8.313530 17.388630
0.729186 8.777880 16.945664
1.980306 10.651541 23.507437
1.411656 8.925197 17.754307
-0.110468 6.596935 21.631266
-0.264232 7.470809 22.429296
0.702103 6.319526 22.261426
0.563839 7.158085 21.850773
-0.427374 8.850975 22.933673
-0.595712 9.737168 23.369714
0.441291 8.418570 22.805330
0.300975 9.475729 23.155342
3.018127 6.269637 20.991408
3.032051 7.323321 21.906456
0.169067 7.713933 16.701049
0.052929 8.660729 17.354519
2.906163 8.251573 21.696220
2.855986 9.340881 22.127599
2.991363 6.354502 17.154026
2.977628 7.158904 17.555813
2.773720 10.412267 22.296169
2.095786 8.832326 17.093193
2.824584 7.753551 17.010337
2.658385 8.135507 16.395530
1.499052 6.477669 21.780068
1.393749 7.003100 22.214133
2.348720 6.291772 22.290293
2.189516 7.034185 21.811818
1.122082 7.294204 18.964333
0.955934 7.519035 17.598802
2.085135 7.978463 21.906557
1.991569 8.990898 22.160058
0.827216 8.005757 16.852394
0.728095 8.708108 16.937909
1.975269 10.549446 23.473672
1.823346 11.793314 23.871127
-0.111257 6.542360 21.696861
-0.254559 7.255626 21.989793
0.702674 6.258017 22.310915
0.563399 7.083267 21.850931
-0.426580 8.767579 22.928231
-0.594328 9.647035 23.356272
0.440756 8.332104 22.787023
0.300748 9.389447 23.148404
2.862893 1.717372 5.967362
2.896058 2.102859 6.111801
2.926410 5.772158 11.579375
2.810700 6.354567 11.304258
2.856918 2.529330 6.044386
2.889491 2.944963 6.152541
2.875425 2.134751 5.295216
2.876322 2.441687 5.327354
2.883206 3.421150 6.111478
2.906138 3.843853 6.167272
2.893882 2.886641 5.328411
2.913715 3.256058 5.354177
2.861741 2.288356 8.341875
2.844362 2.784467 8.443219
2.853120 1.815713 6.986178
2.837994 2.214375 7.056558
2.849034 3.403519 8.574328
2.862354 3.998494 8.737525
2.831594 2.726406 7.105685
2.840759 3.180259 7.207630
2.855349 4.685938 8.770028
2.899877 5.390180 9.008867
2.874239 3.790165 7.315187
2.904859 4.325472 7.439131
2.987451 3.605367 14.003216
2.974965 4.504626 14.460071
2.902977 2.553569 10.510272
2.879503 3.196018 10.694883
2.980368 5.629657 14.986460
2.985440 6.779335 15.550309
2.922479 4.066571 11.110029
2.923036 4.779680 11.391004
3.017995 6.204097 21.009866
3.022902 7.232832 21.858167
0.168977 7.663491 16.727712
0.051487 8.677973 17.530369
2.921818 8.229382 21.848066
2.844858 9.234595 22.063521
2.990963 6.300381 17.170901
2.974625 7.097054 17.558616
2.768399 10.322368 22.282218
2.158673 9.060825 17.690883
2.873087 7.836348 17.350170
2.665532 8.107248 16.468269
1.508355 6.453677 21.958943
1.382807 6.873608 22.031867
2.361870 6.258330 22.447556
2.184542 6.949887 21.779276
1.306439 8.619161 22.830261
0.967291 7.573530 17.891692
2.155273 8.191626 22.752664
2.006390 8.993614 22.373072
0.819742 7.862534 16.673821
0.714103 8.431659 16.508129
1.963592 10.410029 23.351529
1.375508 8.560214 17.274196
-0.113678 6.517697 21.870223
-0.254530 7.184598 22.003679
0.704107 6.206897 22.400931
0.562218 6.995218 21.806883
-0.424358 8.665386 22.869889
-0.591441 9.539574 23.297915
0.439026 8.206202 22.653106
0.300298 9.284634 23.092708
3.018951 6.173404 21.026670
3.018937 7.189210 21.838625
0.168437 7.724008 16.939224
0.052761 8.582127 17.398825
2.920597 8.191934 21.851044
2.840395 9.185338 22.040536
2.990915 6.273622 17.180208
2.977778 7.077468 17.589502
2.765218 10.275471 22.270566
2.748690 11.665740 23.061560
2.830881 7.691863 17.086875
2.684754 8.142300 16.609565
1.510446 6.429417 22.005071
1.382637 6.838652 22.040146
2.367521 6.238763 22.516551
2.181017 6.904389 21.751440
1.251807 8.175819 21.705258
0.967010 7.543408 17.897428
2.151501 8.141311 22.721532
2.018282 9.015994 22.535505
0.819103 7.829235 16.669145
0.711546 8.365574 16.438148
1.951011 10.302250 23.200302
1.370967 8.501645 17.220310
-0.114461 6.496950 21.928022
-0.253182 7.129597 21.947489
0.705569 6.189865 22.479788
0.561596 6.950743 21.782818
-0.423691 8.620210 22.856553
-0.589965 9.485649 23.267639
0.439532 8.190294 22.722145
0.300120 9.237067 23.076828
3.015783 6.101413 21.021800
3.013476 7.107964 21.818203
0.168469 7.655335 16.925441
0.050899 8.621382 17.623580
2.922130 8.128199 21.888600
2.839650 9.114170 22.062559
2.990236 6.218677 17.194902
2.979745 7.027412 17.623416
2.757844 10.177744 22.237830
2.738980 11.550819 23.009250
2.824957 7.622260 17.071472
2.920886 8.829935 18.220091
1.516138 6.387171 22.122270
1.379781 6.754644 22.008544
2.372762 6.182627 22.590802
2.176593 6.822125 21.724095
1.241345 8.031112 21.513094
1.152912 9.243473 22.322959
2.150275 8.065759 22.732584
2.032533 9.013697 22.741428
0.820778 7.798196 16.739989
0.714345 8.359584 16.556697
1.961111 10.287201 23.367332
1.365439 8.409603 17.164451
-0.115568 6.446902 22.014614
-0.252596 7.051029 21.936061
0.711974 6.194852 22.794440
0.560817 6.869990 21.761201
-0.422742 8.535297 22.844644
-0.588902 9.399801 23.262586
0.439092 8.107646 22.712472
0.299885 9.150599 23.067163
2.868258 1.674149 5.990379
2.890641 2.052354 6.112756
2.923050 5.675561 11.607202
2.818754 6.285699 11.387437
2.855356 2.481607 6.057653
2.870463 2.879047 6.127851
2.879584 2.096885 5.317554
2.878750 2.402770 5.348561
2.873887 3.363458 6.113413
2.907487 3.798161 6.197646
2.893835 2.845737 5.348018
2.913675 3.214941 5.376687
2.862196 2.224202 8.358558
2.843125 2.718060 8.458229
2.853015 1.761819 6.997318
2.841208 2.162252 7.079970
2.848931 3.337098 8.597895
2.848562 3.911757 8.719342
2.836025 2.675566 7.136603
2.841307 3.125265 7.231257
2.827235 4.571908 8.707774
2.899314 5.319345 9.046334
2.869273 3.727317 7.327966
2.907179 4.271502 7.476734
2.986128 3.495013 14.022446
2.977584 4.396152 14.507281
2.897592 2.467854 10.506130
2.895823 3.130424 10.784629
2.984536 5.521037 15.051590
2.985900 6.659477 15.603849
2.924539 3.983187 11.148016
2.921211 4.688301 11.417990
3.016927 6.038338 21.049308
3.003840 7.017138 21.765267
0.168442 7.593198 16.926160
0.059697 8.109988 16.670656
2.948917 8.135862 22.130420
2.846142 9.067108 22.145432
2.992257 6.169460 17.226339
2.980233 6.973843 17.647974
2.753357 10.091565 22.230273
2.665101 11.153956 22.372383
2.838833 7.607347 17.185504
2.682752 8.032731 16.645481
1.522820 6.348994 22.256826
1.375874 6.665487 21.957479
2.383877 6.141786 22.726756
2.172484 6.741335 21.700315
1.304529 8.428684 22.860404
1.206573 9.677584 23.625744
2.144505 7.972656 22.690483
1.988345 8.734760 22.218091
0.821697 7.758069 16.790709
0.726268 8.497734 16.976308
1.894945 9.843605 22.515267
1.808396 11.430287 23.778241
-0.117795 6.416363 22.174494
-0.251112 6.959409 21.880373
0.711742 6.122690 22.808752
0.559759 6.785005 21.723996
-0.420989 8.440013 22.802301
-0.586334 9.296917 23.212506
0.438182 8.010602 22.658943
0.299486 9.051652 23.023555
3.018866 5.976557 21.082330
3.001059 6.942717 21.765121
0.168396 7.538005 16.943197
0.060236 8.027703 16.629500
3.032798 8.301767 22.834265
2.858609 9.039019 22.278171
2.990971 6.113150 17.236943
2.981616 6.922142 17.677882
2.752862 10.020421 22.257031
2.659522 11.059835 22.355884
2.835700 7.545281 17.188018
2.689385 8.001383 16.714488
1.525894 6.293630 22.329526
1.374546 6.590256 21.954058
2.389115 6.084639 22.800790
2.169270 6.663432 21.685759
1.298391 8.313201 22.759133
1.190412 9.454284 23.273348
2.136994 7.872910 22.627150
1.951810 8.494731 21.788445
0.829497 7.799676 17.030105
0.713235 8.240708 16.574060
1.883167 9.708024 22.388296
1.785450 11.198240 23.472241
-0.118791 6.363048 22.253218
-0.250446 6.880112 21.864516
0.712860 6.065264 22.882963
0.559164 6.708075 21.713294
-0.419936 8.354191 22.785967
-0.584824 9.206459 23.193707
0.437836 7.931522 22.658121
0.299235 8.964184 23.009471
3.023651 5.953222 21.127576
2.996606 6.898432 21.741218
0.168363 7.510067 16.950748
0.060131 8.005153 16.648774
3.016727 8.221488 22.717107
2.859871 9.008551 22.302892
2.993645 6.091858 17.262853
2.982441 6.896648 17.693732
2.175925 7.808957 17.217050
2.092701 8.552789 17.198886
2.836215 7.520010 17.202940
2.699509 8.006629 16.794978
1.529005 6.272940 22.392894
1.372134 6.543497 21.919597
2.395870 6.066727 22.881276
2.166264 6.620164 21.663089
1.293728 8.244355 22.675291
1.181571 9.336662 23.079046
2.133866 7.825759 22.602932
1.946971 8.438448 21.741380
0.825793 7.729468 16.940869
0.710733 8.176290 16.505144
1.880221 9.657036 22.364234
1.795369 11.230093 23.637900
-0.119835 6.345795 22.328311
-0.250149 6.840868 21.857462
0.715126 6.055768 22.998684
0.558635 6.665804 21.694424
-0.415716 8.264834 22.643609
-0.583669 9.156745 23.172058
0.437447 7.885477 22.637693
0.299006 8.912187 22.979844
2.861162 1.624789 5.984187
2.890558 2.005318 6.125781
2.922932 5.585242 11.648526
2.837284 6.240074 11.517353
2.853793 2.433814 6.070532
2.867481 2.829070 6.140466
2.877830 2.055022 5.327489
2.876207 2.359804 5.359251
2.880249 3.323610 6.151922
2.901871 3.743178 6.211241
2.892162 2.803188 5.363966
2.910451 3.170232 5.392375
2.864381 2.161082 8.380360
2.843569 2.653079 8.478264
2.844760 1.703736 6.985834
2.841770 2.108067 7.095659
2.847193 3.268674 8.615458
2.859002 3.858530 8.782717
2.830124 2.615425 7.138218
2.831792 3.059389 7.226019
2.707888 4.311779 8.331008
2.902197 5.254697 9.095165
2.860633 3.659834 7.329764
2.908307 4.215434 7.510545
2.987763 3.387819 14.056178
2.974557 4.278974 14.523261
2.898851 2.387361 10.528012
2.904360 3.055593 10.841875
2.990374 5.414824 15.125284
2.983815 6.533363 15.641765
2.925274 3.897692 11.179781
2.922345 4.601542 11.457060
3.011512 5.863865 21.054788
2.985994 6.806170 21.679837
0.168509 7.418839 16.880767
0.060300 7.940816 16.645393
2.995488 8.092210 22.570578
2.842573 8.883174 22.185249
2.992032 6.034975 17.271370
2.982634 6.842153 17.716032
2.384317 8.536201 19.069755
2.088491 8.481266 17.186760
2.934122 7.730299 17.868417
2.694080 7.937920 16.782801
1.536477 6.236507 22.540861
1.368532 6.456796 21.873482
2.447031 6.126492 23.436926
2.160943 6.536082 21.625164
1.290532 8.151523 22.635661
1.179331 9.245126 23.056778
2.128578 7.735439 22.565594
1.938637 8.332600 21.663721
0.822981 7.644349 16.888602
0.710657 8.124863 16.529594
1.880243 9.587933 22.395166
1.366643 8.231822 17.273605
-0.121868 6.309611 22.474627
-0.248787 6.751793 21.806690
0.717996 6.017368 23.154413
0.557576 6.581487 21.656445
-0.417518 8.214922 22.728799
-0.581424 9.058292 23.130333
0.436516 7.788665 22.581362
0.298649 8.818237 22.946535
3.018046 5.810797 21.121883
2.983699 6.733305 21.682786
0.168303 7.389755 16.960102
0.061068 7.847572 16.577964
3.000493 8.035550 22.636114
2.867150 8.893087 22.419885
2.991048 5.979191 17.283412
2.981980 6.785437 17.732532
2.766375 9.897457 22.453061
2.090601 8.436879 17.231940
2.925122 7.650575 17.832724
2.712745 7.942327 16.933032
1.541933 6.190197 22.653945
1.367202 6.382012 21.869353
2.163259 6.476029 21.671241
1.288271 8.065318 22.614545
1.177516 9.157276 23.043445
2.122839 7.643484 22.522167
1.936606 8.255938 21.664243
0.823054 7.593165 16.915010
0.712521 8.102869 16.617226
1.878096 9.506585 22.396260
1.375099 8.235545 17.425459
-0.123011 6.257393 22.562816
-0.248324 6.675802 21.799697
0.719834 5.966314 23.261459
0.558087 6.524700 21.714279
-0.416414 8.129015 22.709751
-0.579914 8.968461 23.110644
0.436093 7.707561 22.572167
0.298383 8.729963 22.927840
3.016700 5.775387 21.120802
2.981683 6.694995 21.677525
0.168232 7.367896 16.982208
0.060996 7.823401 16.593335
2.990222 7.972400 22.565273
2.874136 8.880650 22.492729
2.994326 5.958902 17.312919
2.983967 6.762504 17.755626
2.753185 9.813740 22.352529
2.636623 10.752808 22.248387
2.901346 7.559597 17.688120
2.717519 7.930507 16.977485
1.546406 6.174462 22.740484
1.366012 6.342070 21.857583
2.428745 5.971158 23.273955
2.169240 6.461063 21.747953
1.240252 7.690443 21.619391
1.173535 9.085741 22.963840
2.092970 7.495994 22.182296
1.935949 8.219396 21.669114
0.822945 7.566037 16.924498
0.711606 8.063490 16.600355
1.861805 9.383253 22.192362
1.384665 8.273273 17.581541
-0.124259 6.242629 22.651432
-0.247987 6.636241 21.790360
0.721628 5.950306 23.355825
0.559066 6.509303 21.789350
-0.414911 8.074333 22.665096
-0.578952 8.921245 23.094137
0.430407 7.490938 22.020167
0.298232 8.685958 22.918392
2.862630 1.579484 5.997468
2.887426 1.956313 6.131276
2.921999 5.493037 11.685544
2.853480 6.187481 11.636722
2.854465 2.387676 6.088315
2.866686 2.781110 6.157857
2.876920 2.013635 5.338819
2.876975 2.319310 5.376419
2.879480 3.275439 6.173236
2.905304 3.699770 6.245795
2.893735 2.763486 5.386256
2.911999 3.130508 5.417462
2.859632 2.093214 8.379147
2.842890 2.586953 8.494074
2.838542 1.646906 6.979415
2.846305 2.056380 7.121935
2.847629 3.202533 8.639788
2.856796 3.787650 8.802660
2.830033 2.560318 7.155630
2.839883 3.012081 7.270087
2.691499 4.221350 8.305503
2.899167 5.178673 9.122985
2.855052 3.596339 7.339669
2.899315 4.144395 7.514976
2.984213 3.274799 14.062115
2.975758 4.167783 14.561136
2.891564 2.300475 10.514845
2.908318 2.975474 10.879668
2.989171 5.295055 15.158818
2.986170 6.417017 15.704435
2.928648 3.815328 11.222078
2.923898 4.515104 11.497296
3.020354 5.683531 21.174897
2.972984 6.574111 21.640303
0.168005 7.307895 17.063148
0.060471 7.766870 16.675726
2.987969 7.860911 22.583859
2.790527 8.511083 21.826957
2.992684 5.874826 17.329623
2.982971 6.677317 17.779947
2.201686 7.689038 17.538739
2.058403 8.193057 16.987818
3.003686 7.746314 18.396753
2.740151 7.919024 17.167026
1.554284 6.101995 22.905136
1.362168 6.220885 21.816011
2.435743 5.879663 23.375694
2.180471 6.394030 21.903162
1.276325 7.842045 22.415910
1.140946 8.687272 22.230020
2.069287 7.304597 21.937968
1.934752 8.113043 21.692695
0.830761 7.578531 17.177642
0.709105 7.949009 16.556462
1.851621 9.225100 22.099304
1.382253 8.175461 17.583915
-0.126797 6.176562 22.837793
-0.246541 6.512264 21.742640
0.724447 5.872873 23.520106
0.561013 6.444026 21.950954
-0.412723 7.939577 22.615744
-0.576546 8.785421 23.059038
0.429066 7.350228 21.935228
0.297836 8.556159 22.895158
3.020796 5.651434 21.187078
2.969262 6.532144 21.621403
0.167901 7.291039 17.098138
0.060249 7.749822 16.707433
2.984424 7.816344 22.567301
2.776155 8.431916 21.718643
2.992632 5.847819 17.338259
2.983793 6.651584 17.795439
2.753823 9.676912 22.418778
2.630347 10.587765 22.257146
2.994426 7.693481 18.347600
2.730214 7.862753 17.111741
1.559663 6.089208 23.007166
1.360672 6.179613 21.798163
2.444338 5.864343 23.475497
2.185067 6.374062 21.964489
1.282928 7.853400 22.568020
1.158276 8.807809 22.658675
2.066805 7.261422 21.920303
1.933795 8.075164 21.693566
0.826526 7.503378 17.072685
0.708300 7.911573 16.542900
1.849225 9.178066 22.081675
1.380994 8.139960 17.577912
-0.128162 6.162814 22.934167
-0.245800 6.467493 21.713764
0.725728 5.850528 23.591070
0.561836 6.425187 22.016374
-0.412214 7.897354 22.606728
-0.575520 8.737790 23.040296
0.428735 7.307581 21.919460
0.297592 8.503609 22.860898
2.487319 4.629227 17.171335
2.967001 6.493508 21.613881
0.167824 7.269620 17.121980
0.059879 7.739965 16.755591
2.980647 7.771231 22.548770
2.768608 8.374523 21.667917
2.993791 5.823156 17.354401
2.982580 6.621213 17.797830
2.731253 9.560055 22.234761
2.633441 10.566286 22.302126
3.000240 7.680177 18.397763
2.738195 7.859935 17.177970
1.565155 6.076590 23.111150
1.358566 6.135335 21.768656
2.444259 5.827680 23.484106
2.190182 6.355488 22.031573
1.280158 7.799464 22.522805
1.159467 8.783572 22.701877
2.063034 7.213581 21.887328
1.936272 8.052631 21.737606
0.825485 7.465304 17.056172
0.708096 7.883321 16.549270
1.847516 9.134780 22.073228
1.395665 8.210209 17.811039
-0.129384 6.146359 23.020851
-0.245706 6.431453 21.715609
0.727520 5.833329 23.685410
0.563119 6.414088 22.110716
-0.411443 7.852047 22.588141
-0.574109 8.686153 23.010184
0.428385 7.264403 21.901704
0.297392 8.455203 22.837837
2.859426 1.532022 5.999529
2.891152 1.911407 6.152500
2.919441 5.397499 11.714617
2.872776 6.140318 11.770036
2.850662 2.338021 6.095122
2.864430 2.731686 6.171388
2.874320 1.971158 5.346335
2.876913 2.278056 5.391556
2.871582 3.219348 6.177167
2.907343 3.654274 6.276723
2.894495 2.722864 5.406562
2.908772 3.085589 5.432425
2.861236 2.029461 8.398055
2.838844 2.517880 8.498194
2.840469 1.594018 6.994784
2.842890 1.999300 7.125757
2.835011 3.122297 8.619546
2.856695 3.719431 8.829227
2.829940 2.505078 7.172605
2.832880 2.948888 7.270946
2.701610 4.172939 8.370746
2.902044 5.113270 9.170786
2.849469 3.532895 7.349017
2.881990 4.061624 7.494808
2.981770 3.163006 14.072920
2.975897 4.054788 14.592424
2.899464 2.224430 10.562229
2.913189 2.895811 10.920651
2.970206 5.143760 15.091693
2.977728 6.276342 15.703424
2.752843 3.507563 10.502255
2.925025 4.427645 11.535026
2.971700 6.402801 21.680721
0.167392 7.240237 17.282566
0.058377 7.729464 16.945908
2.968420 7.633808 22.485043
2.761853 8.252412 21.649364
2.989424 5.733737 17.353429
2.979836 6.531978 17.810251
2.714229 9.395035 22.128553
2.615808 10.388533 22.188557
2.992025 7.573061 18.378491
2.749858 7.814054 17.293110
1.571208 5.993832 23.244535
1.357775 6.030229 21.783949
2.464905 5.767055 23.729052
2.202443 6.289211 22.198100
1.278009 7.680290 22.515705
1.138712 8.496250 22.247721
2.057875 7.092836 21.860213
1.946718 7.997351 21.907228
0.829436 7.431574 17.202240
0.709752 7.832097 16.642786
1.848196 9.035573 22.125412
1.415134 8.255290 18.142339
-0.131472 6.069710 23.175979
-0.246894 6.342886 21.792079
0.731308 5.763312 23.894259
0.565336 6.350929 22.289531
-0.407687 7.699812 22.480469
-0.572217 8.556697 22.988822
0.427613 7.142849 21.872743
0.296987 8.325615 22.811452
3.009498 5.466008 21.144952
2.970414 6.366302 21.680616
0.152660 9.515607 23.136077
0.057675 7.734933 17.030823
2.962556 7.583569 22.449133
2.762674 8.221331 21.669202
2.992397 5.712467 17.380751
2.981821 6.508739 17.833010
2.708544 9.340334 22.092931
2.624015 10.388258 22.280478
2.994489 7.550859 18.406408
2.751153 7.791021 17.313895
1.576356 5.978853 23.342687
1.360759 6.011247 21.850825
2.474603 5.753075 23.840501
2.208073 6.271442 22.270925
1.252536 7.472712 21.990769
1.134969 8.429346 22.172216
2.055071 7.048848 21.838330
1.948297 7.970353 21.939912
0.827862 7.387442 17.170731
0.710424 7.816811 16.678203
1.848275 9.001753 22.140863
1.424937 8.291443 18.303016
-0.132984 6.057101 23.282070
-0.247977 6.322054 21.849652
0.731227 5.725998 23.902700
0.561147 6.246915 22.040025
-0.392685 7.487826 21.943995
-0.571127 8.508760 22.967745
0.427262 7.099925 21.854671
0.296579 8.258449 22.733254
3.014533 5.442173 21.191539
2.970101 6.331930 21.688105
0.152407 9.509425 23.226752
0.057616 7.709201 17.044205
2.893849 7.370275 21.900105
2.764815 8.194263 21.700212
2.993555 5.687678 17.396697
2.981479 6.480297 17.840769
2.699524 9.273873 22.027671
2.632024 10.386902 22.370637
2.988578 7.507157 18.378886
2.759399 7.788237 17.382018
1.581163 5.962198 23.435019
1.364658 5.996547 21.935105
2.489466 5.750867 24.006394
2.214049 6.254476 22.347601
1.248597 7.412222 21.920069
1.131305 8.363380 22.098434
2.053877 7.010717 21.835444
1.960924 7.991492 22.112051
0.831942 7.407236 17.296593
0.710329 7.790021 16.688055
1.861830 9.038434 22.338636
1.767856 10.498790 23.484133
-0.131540 5.995928 23.187930
-0.249748 6.309962 21.940019
0.734289 5.720565 24.055572
0.560554 6.203785 22.016372
-0.392279 7.448079 21.938012
-0.569909 8.459576 22.942804
0.426874 7.055909 21.832692
0.296157 8.190240 22.651122
2.858543 1.476242 6.008347
2.885719 1.851430 6.154126
2.920518 5.290240 11.766865
2.892833 6.074517 11.915778
2.851322 2.282169 6.115123
2.865812 2.675863 6.196809
2.874243 1.921836 5.361137
2.876843 2.228295 5.409249
2.873656 3.164421 6.208820
2.901718 3.589213 6.294031
2.887942 2.667288 5.414962
2.909517 3.036219 5.459375
2.861666 1.951710 8.415154
2.838706 2.438820 8.518009
2.838985 1.528582 7.002240
2.846745 1.935642 7.151801
2.846848 3.054420 8.685555
2.858160 3.639212 8.865782
2.823377 2.433370 7.174142
2.839699 2.888233 7.314607
2.715278 4.116040 8.453962
2.895555 5.016314 9.192588
2.846324 3.460969 7.369662
2.877154 3.985281 7.515482
2.977076 3.027049 14.075384
2.972128 3.913541 14.607333
2.890251 2.120026 10.542747
2.915747 2.796432 10.955326
2.973330 5.008147 15.154841
2.981959 6.138706 15.784309
2.786578 3.450765 10.675773
2.929092 4.326213 11.591203
3.008735 5.332913 21.172679
2.955310 6.199090 21.600968
0.152704 9.331181 23.090444
0.057678 7.621537 17.060154
2.888119 7.253300 21.887331
2.760479 8.079783 21.701245
2.992817 5.605057 17.417754
2.981351 6.396705 17.869346
2.693963 9.151415 22.021307
2.616553 10.218976 22.275662
2.988456 7.421017 18.412298
2.765442 7.724552 17.458749
1.589139 5.884745 23.601124
1.370989 5.924942 22.085289
2.497556 5.657272 24.119027
2.225957 6.184622 22.510076
1.245820 7.292028 21.897702
1.107035 8.052520 21.556213
2.046623 6.883298 21.782390
1.990171 8.014383 22.519631
0.863022 7.674201 18.200028
0.710450 7.715103 16.730109
1.667654 7.930557 19.748640
1.398766 8.009318 17.959506
-0.128809 5.840332 23.015600
-0.252320 6.237464 22.081707
0.737856 5.645254 24.254427
0.570442 6.265996 22.678283
-0.390246 7.319910 21.890994
-0.567570 8.326312 22.906991
0.425892 6.928853 21.781526
0.296214 8.103997 22.746356
3.009175 5.300760 21.184323
2.961087 6.177743 21.656114
0.152740 9.280039 23.065295
0.058065 7.574630 17.023664
2.882256 7.204374 21.850705
2.764160 8.057198 21.745189
2.993369 5.579038 17.429755
2.983335 6.373270 17.891927
2.691404 9.108251 22.012888
2.615711 10.180976 22.283833
2.985615 7.385280 18.404845
2.778500 7.735031 17.559798
1.593603 5.865815 23.687593
1.375293 5.911341 22.177303
2.499687 5.624640 24.150668
2.231757 6.166360 22.584796
1.244223 7.247708 21.876133
1.104704 7.999453 21.513652
2.044301 6.841383 21.765836
1.982940 7.948512 22.440944
0.865833 7.677612 18.291342
0.711721 7.708334 16.785561
1.912084 9.158505 23.077258
1.400787 7.994604 18.002719
-0.127220 5.777944 22.911229
-0.253527 6.217332 22.145015
0.739301 5.622448 24.333069
0.569632 6.218561 22.641053
-0.389893 7.280954 21.886620
-0.566288 8.276807 22.879792
0.425012 6.870317 21.709381
0.295942 8.049854 22.703549
3.009103 5.267696 21.192050
2.959799 6.141375 21.655630
0.152772 9.229714 23.041910
0.058320 7.534089 17.001803
2.878016 7.159690 21.827264
2.761897 8.016637 21.738501
2.992710 5.550755 17.434132
2.982992 6.344751 17.899467
2.690512 9.070967 22.019194
2.622146 10.172620 22.359351
2.986961 7.360081 18.425115
1.597725 5.845290 23.768221
1.377663 5.888299 22.232500
2.512701 5.616534 24.297156
2.239284 6.152812 22.678818
1.242896 7.205254 21.860203
1.184023 8.642022 23.435929
2.041980 6.799537 21.749203
1.985413 7.924301 22.484956
1.006884 9.211129 22.246363
0.712446 7.693400 16.822714
2.047459 9.816918 24.929598
1.398676 7.953316 17.983424
-0.126578 5.730851 22.870995
-0.255139 6.202104 22.227651
0.740958 5.601487 24.421479
0.570724 6.202154 22.723804
-0.388912 7.234874 21.859277
-0.565391 8.231316 22.863831
0.425210 6.844386 21.746409
0.295769 8.004818 22.687159
2.860786 1.430971 6.022281
2.886393 1.804505 6.167355
2.920387 5.198685 11.805140
2.915611 6.031174 12.064895
2.852736 2.236176 6.133493
2.861365 2.624303 6.204224
2.872485 1.879758 5.369646
2.878435 2.187957 5.427110
2.872882 3.115855 6.228850
2.898880 3.537318 6.312421
2.887075 2.625029 5.431132
2.912651 2.997496 5.486738
2.857490 1.884287 8.414096
2.834656 2.369791 8.520900
2.840909 1.475424 7.016685
2.842002 1.877708 7.150938
2.845102 2.985505 8.700820
2.879649 3.597470 8.965540
2.819407 2.374989 7.179156
2.839609 2.831736 7.334145
2.733536 4.078094 8.547055
2.895964 4.945860 9.230524
2.845022 3.402588 7.390171
2.874108 3.923068 7.535014
2.978698 2.919143 14.105483
2.969793 3.797004 14.623207
2.894349 2.040844 10.573433
2.907346 2.703983 10.939765
2.971447 4.887188 15.181341
2.982080 6.016224 15.830987
2.755618 3.331423 10.568005
2.923870 4.228627 11.599663
3.008919 5.168320 21.214871
2.956698 6.033762 21.659521
0.152824 9.090510 23.001033
0.058628 7.435215 16.989181
2.869966 7.037638 21.794379
2.774509 7.952504 21.883178
2.991667 5.467439 17.452632
2.983733 6.262743 17.933040
2.240877 7.414363 18.060450
2.105445 7.985507 17.609217
3.005536 7.320025 18.582179
2.810430 7.716248 17.825498
1.607397 5.771706 23.963249
1.385615 5.821890 22.413460
2.523367 5.526593 24.436586
2.247903 6.071132 22.804356
1.239397 7.081103 21.821438
1.157322 8.309019 22.834895
2.037945 6.684253 21.733263
1.990769 7.842045 22.590316
0.989719 8.920565 21.811100
0.726615 7.821359 17.336096
1.913239 9.021072 23.150697
1.689779 9.712741 22.432456
-0.128156 5.644905 22.989539
-0.258286 6.134350 22.396167
0.744643 5.524303 24.625929
0.572988 6.134715 22.906104
-0.387350 7.112995 21.828256
-0.561126 8.079727 22.769956
0.424511 6.726769 21.722858
0.295319 7.873176 22.646915
3.007060 5.132192 21.208835
2.958089 6.002954 21.679925
0.152846 9.041929 22.981004
0.058353 7.419502 17.026109
2.867117 6.996710 21.782017
2.778188 7.929382 21.927008
2.992218 5.441336 17.464425
2.982808 6.232938 17.936641
2.732400 9.078085 22.448192
2.649876 10.144848 22.679914
2.980646 7.229806 18.427806
2.800492 7.660534 17.769214
1.612425 5.753758 24.059424
1.388695 5.801476 22.482176
2.526971 5.496518 24.483659
1.238070 7.038903 21.805193
1.149351 8.207216 22.656641
2.034336 6.638225 21.701005
1.978614 7.756155 22.448616
1.005082 9.054585 22.256724
0.723455 7.749366 17.243076
2.040070 9.624814 24.891153
1.683887 9.640920 22.358633
-0.128464 5.612544 23.013395
-0.259941 6.118762 22.480728
0.745830 5.497941 24.692746
0.574139 6.118401 22.992719
-0.386945 7.073673 21.821607
-0.558239 8.014757 22.694916
0.424179 6.685089 21.705918
0.295096 7.824015 22.616893
3.014349 5.078185 21.279849
2.939713 5.898060 21.553289
0.152852 8.955378 22.968724
0.058406 7.360997 17.035174
2.863770 6.920601 21.776051
2.814412 7.966989 22.260941
2.993042 5.388396 17.485941
2.985636 6.182995 17.973760
2.715641 8.950935 22.326801
2.645469 10.056627 22.670232
2.981687 7.174934 18.456671
2.808446 7.627473 17.847049
1.616269 5.693415 24.144448
1.392546 5.749254 22.574852
2.544357 5.457784 24.684966
1.742173 4.572990 17.167155
1.236708 6.962649 21.799205
1.151757 8.157106 22.741591
2.032782 6.565452 21.703290
1.975380 7.672928 22.431856
0.988378 8.805322 21.817533
0.716232 7.592876 17.025169
1.797327 8.333649 21.614006
1.685019 9.578574 22.406066
-0.128472 5.538830 23.021887
-0.261598 6.067098 22.572284
0.747899 5.441335 24.810589
0.575308 6.066645 23.092148
-0.385895 6.992717 21.800397
-0.560587 7.965955 22.785118
0.423773 6.608418 21.694832
0.294875 7.742703 22.607832
2.853685 1.382043 6.014034
2.884017 1.755831 6.172999
2.922685 5.111173 11.853610
2.938771 5.986660 12.215829
2.849674 2.186914 6.140810
2.845248 2.562719 6.183150
2.873258 1.839040 5.383069
2.874229 2.143458 5.432557
2.869969 3.064946 6.243333
2.897433 3.487004 6.333730
2.886207 2.582659 5.446960
2.907034 2.949843 5.495587
2.860243 1.820757 8.435152
2.832287 2.302127 8.528836
2.838759 1.420514 7.019540
2.835934 1.819130 7.145896
2.841180 2.914386 8.708129
2.857419 3.500955 8.914200
2.812208 2.314228 7.174536
2.837003 2.772709 7.346022
2.753830 4.041919 8.647187
2.894893 4.872541 9.262685
2.838210 3.337749 7.394279
2.875821 3.867229 7.567864
2.975877 2.806987 14.111488
2.968865 3.682181 14.645818
2.890851 1.956808 10.572751
2.908091 2.619795 10.961554
2.973245 4.772078 15.227713
2.984418 5.897923 15.889752
2.768234 3.264012 10.645565
2.925411 4.140842 11.637032
3.003994 4.994994 21.216992
2.940059 5.831736 21.574413
0.152881 8.860798 22.933655
0.057771 7.332864 17.118145
2.854826 6.831188 21.724150
2.877011 8.079214 22.821304
2.994143 5.336025 17.509247
2.983494 6.122709 17.978761
2.696975 8.818398 22.188145
2.597576 9.796686 22.255430
2.982980 7.120742 18.487282
2.816373 7.594112 17.924901
1.626093 5.654993 24.332830
1.399617 5.711271 22.729679
2.571294 5.438363 24.987840
2.289179 6.005922 23.315102
1.233063 6.872377 21.745121
1.148808 8.062924 22.697827
2.032485 6.497147 21.720735
1.943014 7.470458 22.044754
1.009326 8.963115 22.435934
0.716693 7.547596 17.066192
1.797344 8.266837 21.640802
1.682350 9.492731 22.396085
-0.127795 5.454512 22.981353
-0.264549 6.030044 22.723919
0.751796 5.401355 25.014644
0.577392 6.029126 23.251749
-0.384142 6.904062 21.752118
-0.558922 7.877224 22.755716
0.423938 6.549388 21.745111
0.292622 7.487408 22.060014
3.003666 4.961464 21.222297
2.953626 5.825238 21.690765
0.152941 8.807076 22.898146
0.058008 7.293399 17.097560
2.851977 6.790551 21.711409
2.859337 7.992792 22.682692
2.994995 5.310335 17.522745
2.984604 6.097091 17.995323
2.716917 8.851203 22.380042
2.593587 9.746428 22.233557
2.984045 7.094610 18.505321
2.819000 7.573572 17.954620
1.630663 5.634105 24.421161
1.402898 5.690797 22.802223
2.571575 5.400103 24.999681
2.284957 5.958324 23.277437
1.232816 6.837305 21.751476
1.147490 8.017245 22.679592
2.036923 6.478226 21.784106
1.933846 7.398834 21.940054
1.031061 9.160888 23.062321
0.722825 7.608558 17.285707
1.796596 8.229665 21.643801
1.677309 9.426929 22.334574
-0.127586 5.414383 22.969764
-0.266370 6.015272 22.816228
0.753658 5.380127 25.112745
0.578326 6.008363 23.324742
-0.383842 6.866135 21.748932
-0.558797 7.839829 22.761777
0.424492 6.533292 21.818328
0.292140 7.416831 21.958837
3.003295 4.894685 21.234641
2.956924 5.764102 21.734731
0.152927 8.723829 22.892531
0.057645 7.253455 17.152563
2.847469 6.712103 21.695194
2.853734 7.906097 22.659350
2.866064 5.031227 16.726378
2.986848 6.045623 18.028286
2.680990 8.661339 22.086089
2.588590 9.657620 22.216982
2.986200 7.042108 18.541238
3.049104 8.149918 19.562151
1.634956 5.573735 24.513737
1.407252 5.639219 22.904419
2.574017 5.327233 25.042682
2.290188 5.899759 23.354938
1.230913 6.758070 21.733284
1.147938 7.950735 22.716725
2.043898 6.433371 21.887716
1.932702 7.325977 21.948681
1.006716 8.831817 22.406912
0.722652 7.553026 17.304621
1.797468 8.166673 21.681494
1.665924 9.287650 22.190679
-0.127537 5.340029 22.973708
-0.267910 5.960550 22.901772
0.755382 5.318347 25.214671
0.579398 5.953528 23.418143
-0.382792 6.785739 21.726971
-0.556586 7.746359 22.716645
0.424951 6.481099 21.895344
0.292012 7.345731 21.973190
2.858261 1.337481 6.032697
2.885451 1.709128 6.187281
2.920926 5.016108 11.883165
2.986370 5.991111 12.479389
2.848847 2.139160 6.153079
2.861948 2.529255 6.240591
2.870653 1.796397 5.389147
2.876647 2.103444 5.451492
2.869192 3.016141 6.262560
2.897376 3.438196 6.357995
2.884526 2.539513 5.460743
2.905392 2.906087 5.512331
2.850866 1.750692 8.416001
2.831599 2.235697 8.541847
2.838644 1.366382 7.027547
2.836487 1.764357 7.158882
2.837799 2.843833 8.716699
2.858362 3.433131 8.942143
2.814691 2.260738 7.196892
2.824963 2.704940 7.330297
2.771062 3.999975 8.736534
2.889881 4.792288 9.280271
2.836904 3.279235 7.413787
2.869796 3.800779 7.577710
2.977493 2.698653 14.139873
2.967934 3.567215 14.667516
2.893995 1.876595 10.598336
2.911578 2.537677 10.994143
2.971356 4.650705 15.252304
2.987070 5.779683 15.949490
2.785247 3.200470 10.741585
2.927371 4.053298 11.675589
3.006976 4.834445 21.277896
2.387475 4.589836 17.244172
0.152988 8.625237 22.843383
0.056460 7.248942 17.296682
2.840844 6.629000 21.661563
2.844797 7.810395 22.607421
2.865958 4.979104 16.740950
2.989647 5.995303 18.064929
2.633783 8.436214 21.690490
2.584543 9.572943 22.209309
2.986096 6.984270 18.562123
3.045792 8.080120 19.564395
1.645000 5.533614 24.705936
1.414216 5.598673 23.057201
2.592462 5.287077 25.255638
2.304880 5.865844 23.539053
1.227448 6.669703 21.682223
1.143580 7.845862 22.637982
2.052771 6.394315 22.014389
1.927944 7.238897 21.911451
1.027918 8.985892 23.034641
0.715625 7.402173 17.092419
1.881594 8.507683 22.858681
1.668114 9.232410 22.253817
-0.126515 5.251352 22.908972
-0.271069 5.923755 23.063047
0.758847 5.271863 25.398985
0.581536 5.914788 23.581545
-0.380935 6.696746 21.674040
-0.554858 7.657651 22.684514
0.426092 6.448678 22.045587
0.291555 7.249496 21.907237
3.004307 4.763926 21.272346
2.990999 5.694066 22.040214
0.152959 8.544379 22.842776
0.056193 7.203749 17.340468
2.838653 6.556362 21.663884
2.841395 7.730405 22.602303
2.851662 4.902628 16.665595
2.992471 5.944691 18.101383
2.627444 8.347808 21.659664
2.585442 9.507243 22.247277
2.986575 6.927562 18.586513
3.043310 8.012438 19.571878
1.649970 5.474264 24.810032
1.418261 5.544446 23.153380
2.602645 5.228818 25.380491
2.309935 5.805631 23.614409
1.225994 6.593670 21.673040
1.141992 7.763223 22.625225
2.057651 6.341484 22.092849
1.924859 7.158518 21.894789
1.022310 8.856380 22.905901
0.712993 7.313194 17.027413
1.886857 8.461935 22.957515
1.661224 9.121651 22.177558
-0.125545 5.164237 22.849734
-0.272816 5.870145 23.158130
0.760143 5.204947 25.481021
0.582636 5.859123 23.676710
-0.380410 6.622364 21.670687
-0.553548 7.573352 22.665335
0.426905 6.405333 22.159114
0.291342 7.171471 21.898134
3.004744 4.731514 21.283115
2.998230 5.673582 22.106459
0.152990 8.495349 22.817884
0.055483 7.206045 17.425611
2.833949 6.511758 21.635343
2.838247 7.686515 22.587375
2.909070 4.973887 17.035531
2.990672 5.912986 18.098774
2.616759 8.279210 21.576881
2.570247 9.414360 22.119814
2.987081 6.899886 18.600537
3.042455 7.979745 19.578327
1.591445 5.231566 23.810104
1.421538 5.522599 23.225822
2.608823 5.201676 25.454640
2.318142 5.790103 23.716149
1.225206 6.555482 21.667412
1.139579 7.709324 22.579806
2.062246 6.321900 22.158061
1.922107 7.113737 21.871129
1.019855 8.795806 22.851655
0.713168 7.289689 17.045701
1.875522 8.372141 22.815738
1.662865 9.097272 22.217284
-0.125192 5.122511 22.827850
-0.274357 5.850553 23.236788
0.762593 5.187122 25.606522
0.583902 5.841931 23.771037
-0.380426 6.588001 21.678550
-0.552652 7.528915 22.648030
0.427116 6.378538 22.197532
0.291149 7.126646 21.874398
2.851937 1.288998 6.025491
2.887646 1.662668 6.203006
2.921192 4.924346 11.921101
2.995938 5.913821 12.567977
2.851002 2.093282 6.172126
2.857497 2.477608 6.246753
2.870580 1.755066 5.400154
2.874923 2.060526 5.461435
2.874116 2.972859 6.295232
2.898710 3.390819 6.385255
2.885279 2.498249 5.479294
2.902158 2.860706 5.525376
2.853616 1.687005 8.436022
2.828666 2.167596 8.546816
2.833776 1.310533 7.022059
2.830417 1.705986 7.152889
2.836048 2.774815 8.730259
2.860883 3.366906 8.975044
2.812653 2.203818 7.205980
2.821725 2.645498 7.339321
2.794404 3.965528 8.847266
2.891760 4.723591 9.321714
2.835596 3.220601 7.432821
2.873290 3.746868 7.614856
2.976887 2.588237 14.155758
2.967000 3.452114 14.688299
2.892865 1.793832 10.605959
2.906831 2.448651 10.991673
2.969128 4.528706 15.274013
2.904355 5.493598 15.504172
2.803576 3.137025 10.842924
2.924678 3.959045 11.692928
3.006381 4.667788 21.310339
3.006116 5.619661 22.186765
0.153070 8.394935 22.760258
0.002804 9.452152 23.343957
2.835667 6.448466 21.669851
2.757353 7.392794 21.915690
2.970654 5.023949 17.439813
2.994922 5.865173 18.144511
2.616012 8.209800 21.596023
2.556174 9.292063 22.017218
2.985579 6.838628 18.611615
3.039944 7.912215 19.585513
1.672060 5.434762 25.219605
1.429512 5.484246 23.397986
2.332137 5.751985 23.892444
1.230107 6.518036 21.794468
1.112624 7.428459 21.950347
2.074493 6.291814 22.325091
1.917051 7.026200 21.829272
0.994491 8.464792 22.164182
0.716355 7.281487 17.178579
1.869482 8.272838 22.759683
1.660073 9.011912 22.203684
-0.124313 5.036913 22.772097
-0.275530 5.789337 23.302559
0.766643 5.143121 25.818206
0.586340 5.805368 23.953850
-0.383814 6.553941 21.817276
-0.529131 7.238169 21.968449
0.424454 6.240454 21.957277
0.290826 7.042541 21.843874
3.005752 4.600379 21.319805
3.016467 5.569693 22.286228
0.153126 8.302729 22.724848
0.003808 9.331535 23.249198
2.849697 6.412851 21.805633
2.753952 7.315204 21.909189
2.948491 4.932991 17.314674
2.994837 5.808471 18.161647
2.616547 8.144254 21.626126
2.552748 9.210538 22.013716
2.984383 6.777888 18.624313
3.037994 7.846015 19.596117
1.670103 5.349702 25.203991
1.433248 5.427056 23.488083
2.629325 5.082606 25.705882
2.339259 5.695396 23.990882
1.232879 6.466939 21.875242
1.111351 7.350696 21.943803
2.078564 6.235029 22.393703
1.915755 6.953306 21.834758
1.000308 8.455747 22.356830
0.720821 7.289483 17.354215
1.867185 8.191294 22.754150
1.659256 8.938131 22.219508
-0.124093 4.961000 22.763053
-0.268984 5.643027 22.999802
0.757184 4.984452 25.400065
0.587678 5.751419 24.064419
-0.385809 6.505020 21.905874
-0.528654 7.164147 21.972671
0.423517 6.149473 21.890436
0.290591 6.963218 21.828304
3.008483 4.571275 21.347846
3.014201 5.530857 22.276970
0.153387 8.222807 22.608743
0.003927 9.287337 23.242708
2.856812 6.395065 21.874502
2.750586 7.272014 21.891646
2.928175 4.872735 17.193612
2.992456 5.775628 18.155005
2.615444 8.107159 21.628947
2.552493 9.175428 22.025734
2.984608 6.749486 18.636236
3.037673 7.814740 19.605991
1.674892 5.326694 25.296068
1.436623 5.404596 23.562403
2.641030 5.065010 25.838697
2.345564 5.673818 24.071210
1.236137 6.452414 21.956065
1.109956 7.306173 21.922356
2.083800 6.216529 22.466583
1.912108 6.905446 21.799233
1.018968 8.611024 22.900141
0.725798 7.330513 17.535933
1.855302 8.100464 22.603972
1.656645 8.888384 22.193816
-0.123509 4.916532 22.725108
-0.269021 5.606680 23.006097
0.768645 5.040566 25.944684
0.588941 5.732943 24.158728
-0.387820 6.490557 21.986772
-0.527178 7.115725 21.937461
0.425400 6.167744 22.100755
0.290384 6.917620 21.800326
2.859624 1.245175 6.050739
2.879932 1.611287 6.194806
2.919833 4.829553 11.950969
2.999295 5.822984 12.627309
2.844954 2.041993 6.171083
2.857420 2.429516 6.263080
2.867973 1.712376 5.405542
2.873198 2.017557 5.471026
2.869060 2.919517 6.303302
2.893081 3.335247 6.395171
2.883595 2.454907 5.492383
2.905287 2.821263 5.551438
2.851745 1.620926 8.440383
2.827974 2.101060 8.558755
2.840445 1.258609 7.047874
2.836264 1.653804 7.179842
2.835926 2.707201 8.748844
2.857082 3.293148 8.985439
2.817715 2.151740 7.234849
2.821001 2.588265 7.355116
2.817233 3.928851 8.956179
2.891175 4.650457 9.353833
2.836122 3.163829 7.456735
2.866667 3.679562 7.621874
2.973689 2.475736 14.157153
2.966768 3.337663 14.712024
2.896004 1.713152 10.630280
2.906654 2.363278 11.007627
2.970581 4.412112 15.315718
2.887015 5.339897 15.442442
2.823661 3.074002 10.951494
2.924097 3.867553 11.718856
3.006037 4.501268 21.343412
3.013807 5.460839 22.291148
0.153088 8.174870 22.699517
0.004732 9.174852 23.165942
2.867565 6.351111 21.983464
2.742313 7.181696 21.843030
2.906292 4.783817 17.069789
2.988565 5.711725 18.147235
2.616155 8.042257 21.660660
2.551197 9.102220 22.042200
2.983943 6.690084 18.652443
3.038903 7.757047 19.638568
1.684921 5.281342 25.488034
1.444794 5.364778 23.738364
2.660566 5.021321 26.063163
2.359898 5.634176 24.251307
1.241933 6.418452 22.102307
1.107870 7.222763 21.896363
2.093468 6.176419 22.602673
1.906754 6.817492 21.752744
1.012997 8.480667 22.760139
0.895472 9.558620 23.341176
1.853660 8.022850 22.607350
1.634662 8.691048 21.884712
-0.123120 4.838311 22.701965
-0.267753 5.519492 22.954133
0.774253 5.006707 26.229055
0.591434 5.694712 24.345392
-0.391423 6.456695 22.133161
-0.525189 7.028003 21.895426
0.431413 6.262113 22.754148
0.290026 6.831300 21.759436
2.416577 3.587096 16.853030
3.011984 5.388052 22.293436
0.153110 8.087824 22.676511
0.004821 9.094611 23.172848
2.862589 6.271587 21.961800
2.740451 7.108670 21.849089
2.912556 4.740676 17.123781
2.989932 5.657787 18.173386
2.617520 7.979088 21.697762
2.550128 9.029613 22.060225
2.981071 6.625517 18.653380
3.036417 7.689396 19.644931
1.689994 5.218519 25.593565
1.448627 5.306342 23.830162
2.669262 4.956079 26.171790
2.367187 5.576234 24.351461
1.244251 6.363314 22.173249
1.105267 7.135328 21.856653
2.100270 6.126640 22.703885
1.904264 6.740464 21.742229
1.011572 8.396214 22.747737
0.889539 9.407675 23.170649
1.854934 7.958436 22.650162
1.643925 8.676902 22.054500
-0.122901 4.762805 22.692258
-0.267958 5.448571 22.974039
0.776088 4.940534 26.336058
0.592614 5.636688 24.445997
-0.393160 6.403632 22.211949
-0.524714 6.954347 21.898945
0.431391 6.193406 22.782181
0.289811 6.754223 21.748871
2.419324 3.564847 16.879512
3.013855 5.356716 22.316792
0.153135 8.040289 22.652590
0.005190 9.040145 23.137842
2.868079 6.249524 22.017131
2.736424 7.064046 21.825450
2.920664 4.726999 17.182400
2.989294 5.628354 18.177873
2.624955 7.968712 21.777337
2.558126 9.024942 22.149784
2.980458 6.595184 18.659429
3.035026 7.655295 19.647122
1.696934 5.201175 25.722860
1.453218 5.287656 23.927877
2.681883 4.938450 26.314392
2.375042 5.557252 24.449264
1.247057 6.345185 22.244407
1.104732 7.097679 21.855793
2.107273 6.112472 22.797995
1.901810 6.697583 21.721577
1.009051 8.336295 22.690498
0.888985 9.364968 23.168047
1.838107 7.846433 22.431011
1.665358 8.766800 22.398274
-0.122663 4.723282 22.677509
-0.269259 5.425590 23.040566
0.778064 4.915820 26.439789
0.593812 5.616100 24.536361
-0.394754 6.383985 22.277390
-0.523237 6.906402 21.863295
0.432010 6.175933 22.863045
0.289631 6.711298 21.728153
2.854855 1.197255 6.046422
2.879838 1.563632 6.204325
2.919687 4.736571 11.985598
2.994113 5.714685 12.646248
2.847106 1.995893 6.189379
2.853696 2.378437 6.270165
2.866210 1.670100 5.412347
2.874783 1.976610 5.487251
2.869704 2.871650 6.324837
2.895107 3.288311 6.423342
2.886781 2.415251 5.515422
2.898869 2.772744 5.557034
2.849872 1.554863 8.444214
2.826720 2.034083 8.568279
2.832182 1.201773 7.032156
2.831515 1.596175 7.176643
2.831996 2.636128 8.753836
2.858019 3.224688 9.011763
2.809220 2.090333 7.224610
2.822161 2.532541 7.375916
2.840058 3.890685 9.065046
2.888125 4.573104 9.376533
2.836035 3.106212 7.478413
2.857067 3.608597 7.619519
2.975296 2.366829 14.182956
2.963009 3.219281 14.715520
2.896294 1.630863 10.642394
2.904647 2.276452 11.015234
2.964998 4.284970 15.316379
2.921073 5.283426 15.684420
2.845060 3.010783 11.065426
2.924358 3.776972 11.747810
3.005132 4.300314 21.377425
3.013658 5.252041 22.340008
0.153137 7.911994 22.621980
0.005546 8.910066 23.120237
2.868360 6.147254 22.048402
2.730095 6.945564 21.803438
2.931102 4.663075 17.269893
2.987115 5.539390 18.189094
2.635211 7.898743 21.906971
2.554243 8.907389 22.155014
2.980320 6.507737 18.688523
3.033019 7.558404 19.668176
1.705991 5.109649 25.906403
1.461636 5.208858 24.117183
2.696007 4.840523 26.488802
2.386902 5.470882 24.609960
1.251728 6.268183 22.376637
1.101827 6.974872 21.820265
1.898058 6.582512 21.705097
1.004110 8.183002 22.591649
0.885719 9.215425 23.103734
1.850852 7.799416 22.644243
1.612869 8.362783 21.630738
-0.121977 4.605672 22.636739
-0.269219 5.315023 23.052329
0.782039 4.824353 26.658132
0.596124 5.534986 24.723208
-0.398614 6.315137 22.440754
-0.521544 6.787512 21.838172
0.433203 6.104212 23.033757
0.289236 6.591737 21.696220
3.000208 4.260271 21.346482
3.015285 5.220114 22.361232
0.153134 7.868533 22.609102
0.005898 8.856681 23.086702
2.865276 6.106370 22.032450
2.726508 6.902372 21.783284
2.913811 4.609403 17.167152
2.989674 5.515890 18.214330
2.700748 8.066395 22.511946
2.558703 8.889231 22.211128
2.979149 6.476149 18.690611
3.032430 7.526363 19.675725
1.711794 5.087520 26.016012
1.466123 5.188765 24.212901
1.255610 6.255381 22.470951
1.100978 6.935044 21.811476
1.641217 4.604580 17.224105
1.894709 6.536600 21.672634
1.007494 8.181414 22.702225
0.884837 9.168648 23.089583
1.847213 7.748038 22.606544
1.617301 8.354576 21.712569
-0.121711 4.566011 22.619750
-0.268770 5.273618 23.034635
0.784222 4.800141 26.771647
0.579655 5.278071 23.679831
-0.400630 6.298824 22.521624
-0.520518 6.743884 21.815602
0.432939 6.063486 23.023306
0.289105 6.552935 21.688651
3.004723 4.233227 21.387720
0.153164 7.820763 22.582841
0.006250 8.803422 23.053057
2.864973 6.071481 22.039513
2.718521 6.847874 21.724956
2.921616 4.594784 17.223743
2.989616 5.487495 18.222394
2.725464 8.107147 22.748218
2.553533 8.836053 22.176158
2.979931 6.448831 18.705837
3.031038 7.492287 19.677631
1.716915 5.062959 26.113819
1.469593 5.164508 24.289019
1.776692 3.152512 16.699705
2.395702 5.414726 24.727379
1.259582 6.242797 22.567214
1.099114 6.887794 21.777732
2.123814 5.983425 23.045809
1.894641 6.502774 21.682293
1.005770 8.129853 22.667163
0.883846 9.120517 23.071604
1.845498 7.705384 22.595321
